# .PCD v0.7 - Point Cloud Data file format
VERSION 0.7
FIELDS x y z
SIZE 4 4 4
TYPE F F F
COUNT 1 1 1
WIDTH 598
HEIGHT 1
VIEWPOINT 0 0 0 1 0 0 0
POINTS 598
DATA ascii
-0.50115228 -0.22681494 0.89635026
-0.49415478 -0.2643474 0.89465171
-0.44386822 -0.32183874 0.96275222
-0.50149536 -0.20926975 0.9019745
-0.46657863 -0.25048152 0.94611269
-0.50569171 -0.13931695 0.92299092
-0.48213324 -0.15686783 0.9604429
-0.51217669 -0.045612384 0.95635676
-0.49220222 -0.070487775 0.98378551
-0.52447718 0.045626123 0.9767803
-0.54119813 0.13951987 0.9874121
-0.55559963 0.21246959 0.9954356
-0.35764557 -0.41068357 1.0830846
-0.41030362 -0.33270791 1.0159526
-0.37826642 -0.35222602 1.0636836
-0.42116502 -0.24510472 1.033622
-0.38955054 -0.2630623 1.0797035
-0.43802345 -0.14971542 1.0465002
-0.39838266 -0.18852185 1.096154
-0.50178415 -0.0028915338 1.0015001
-0.46300316 -0.049566329 1.0472831
-0.50897008 0.064072818 1.0159562
-0.47955051 0.044606477 1.0602484
-0.52054095 0.15527025 1.0353655
-0.4905405 0.13657127 1.0820965
-0.5361498 0.248734 1.0486928
-0.49875683 0.20389657 1.0963334
-0.55452567 0.34413031 1.0643259
-0.56259274 0.41293871 1.0858444
-0.32029685 -0.42739829 1.135341
-0.2868439 -0.44283384 1.1817276
-0.33199123 -0.34792322 1.1441576
-0.29545555 -0.37900972 1.1906515
-0.35458371 -0.24990116 1.1476399
-0.40669239 -0.1263687 1.1118412
-0.37581331 -0.15436599 1.1541415
-0.41840371 -0.043724399 1.129051
-0.3879936 -0.060221419 1.1759211
-0.43348631 0.051872831 1.1456039
-0.39615899 0.01510019 1.1932051
-0.45668322 0.15026617 1.1466727
-0.50742888 0.27029827 1.1136132
-0.47651923 0.244743 1.1551775
-0.51944435 0.35463759 1.1302325
-0.48751882 0.33422264 1.1772689
-0.53919208 0.41030613 1.1178708
-0.2156993 -0.50701284 1.2682999
-0.19683532 -0.51317179 1.293125
-0.24364147 -0.44902918 1.248675
-0.19905554 -0.49746299 1.2970001
-0.30471018 -0.31291234 1.206515
-0.26761866 -0.35141897 1.2501069
-0.3138909 -0.24142127 1.2223778
-0.28268728 -0.25658694 1.2683585
-0.32770467 -0.14703432 1.2418517
-0.29399973 -0.17276783 1.2884724
-0.34989813 -0.049186971 1.2465216
-0.40544251 0.080750711 1.2098162
-0.37173796 0.047458395 1.2511965
-0.41460323 0.15671627 1.2235789
-0.38369036 0.14305305 1.2716274
-0.42853287 0.25362024 1.2426279
-0.39388287 0.22349514 1.2884697
-0.45128739 0.32285663 1.2345344
-0.15502039 -0.52534121 1.355974
-0.20910785 -0.43116817 1.3133327
-0.17409436 -0.45508769 1.3577058
-0.22005217 -0.34479481 1.3333755
-0.18684526 -0.36082056 1.3799348
-0.23754774 -0.24901737 1.3470154
-0.19633336 -0.28824714 1.3952303
-0.30279362 -0.10848904 1.3050953
-0.26297486 -0.15101707 1.3492626
0.1982981 -0.10161775 1.3980001
0.26548105 -0.10376512 1.3954198
0.34757447 -0.10563593 1.3921043
0.40110379 -0.10161775 1.3980001
-0.31130213 -0.039134696 1.3185514
-0.27894786 -0.054971155 1.3640318
0.16422467 -0.049867753 1.3867601
0.25074029 -0.047951378 1.3594167
0.343918 -0.048175607 1.3382007
0.40662742 -0.077386729 1.3829731
-0.32361129 0.054682784 1.3374187
-0.29023877 0.038430035 1.3857019
0.18934822 0.0070261438 1.3972075
0.26237488 0.032023057 1.3810073
0.3440648 0.049314655 1.359702
-0.33995602 0.15035203 1.3503077
-0.29775229 0.1100996 1.3961252
0.36107975 0.11275285 1.3922651
-0.40241283 0.28214529 1.3027143
-0.36559379 0.23728085 1.3427578
-0.048232123 -0.60298795 1.4936668
-0.11300223 -0.53218621 1.420578
-0.077290475 -0.55100721 1.4689578
-0.1253323 -0.44511703 1.4397783
-0.090489775 -0.46908543 1.4831588
-0.14626063 -0.3501448 1.4503698
-0.20556681 -0.22627772 1.4120351
-0.17145577 -0.25359625 1.4540174
-0.21725959 -0.14272252 1.4283357
-0.18532106 -0.15740624 1.4751904
-0.012183534 -0.11326069 1.4779677
0.053069506 -0.12114006 1.4648304
0.15229124 -0.12816116 1.4536114
0.24980582 -0.1368627 1.4495153
0.34959009 -0.14324076 1.4484582
0.42372808 -0.13843033 1.4583617
-0.23170611 -0.048137866 1.446841
-0.19452436 -0.083825424 1.4912146
-0.02550469 -0.049155708 1.4671667
0.050322205 -0.049210876 1.434574
0.12673986 -0.046707086 1.4111255
0.42422187 -0.095620185 1.4209375
-0.25561312 0.050698955 1.4493909
-0.01309277 0.0077521862 1.4938331
0.060108282 0.035885025 1.4769892
0.14955759 0.050767187 1.443584
0.23741293 0.071838997 1.4184959
0.30778426 0.098105602 1.4043847
-0.30678427 0.17228392 1.4139062
-0.27538586 0.14222914 1.4542058
0.16590226 0.12645054 1.4817384
0.25200364 0.14725266 1.4576699
0.34283653 0.15754621 1.4273636
-0.3130289 0.21167299 1.418462
-0.29552475 0.20364586 1.4396
0.27830693 0.21750604 1.4879217
0.35478207 0.23944771 1.4741369
0.40276548 0.28724861 1.4873891
0.39758107 0.30443296 1.4950001
0.40230107 0.30601817 1.4939002
0.26795626 0.59782892 1.4946544
0.35748357 0.59289879 1.487287
0.45255443 0.5879848 1.4799727
0.55265647 0.58382797 1.4700768
0.65089244 0.57573152 1.463276
0.74580419 0.56365818 1.459142
0.8032558 0.532417 1.4890001
-0.030811569 0.62956065 1.4959995
0.057187013 0.6224193 1.492401
0.1532314 0.6151945 1.4865783
0.24928792 0.60974014 1.4799196
0.34734073 0.60760975 1.4678687
0.4444302 0.60484684 1.4553981
0.53075737 0.60226125 1.4427714
0.62410587 0.60118777 1.439
-0.017169742 -0.61223477 1.5372798
0.018263951 -0.62428045 1.5796505
0.16139276 -0.64176798 1.5929419
0.26011437 -0.63554382 1.5908041
0.35373244 -0.6288659 1.5889176
0.45207137 -0.62402534 1.5860198
0.55090594 -0.62042594 1.5836301
0.64987695 -0.61781394 1.5776156
0.74844033 -0.61589295 1.5656949
0.80872804 -0.61050498 1.5549291
-0.031410657 -0.54752803 1.5432826
0.0046167583 -0.58069128 1.5844234
0.57254022 -0.59451634 1.593001
0.65295368 -0.59265858 1.5914979
0.7592268 -0.58419597 1.5863452
0.81717503 -0.57352972 1.5801517
-0.10081954 -0.41137391 1.5020001
-0.05728858 -0.45050031 1.5461959
-0.10967685 -0.33278432 1.5167298
-0.077754058 -0.35616824 1.5569115
-0.12339475 -0.24508324 1.5366055
-0.0907811 -0.2648885 1.5794886
0.086158082 -0.2045294 1.5862142
0.15656942 -0.2077942 1.5794313
0.25563684 -0.2122454 1.5713426
0.34534761 -0.21646407 1.5637181
0.43920025 -0.21070109 1.5551075
-0.14304689 -0.15121633 1.5454669
-0.027027035 -0.1526362 1.5365
0.05298344 -0.16709687 1.53965
0.14602606 -0.17770129 1.5322826
0.24861522 -0.18415211 1.5252218
0.35147801 -0.18790691 1.5206684
0.4520795 -0.18288517 1.5298651
-0.20536044 -0.013246058 1.5091205
-0.16919921 -0.051388048 1.5482061
-0.046173409 -0.0033436294 1.5020002
-0.213494 0.057292145 1.5226145
-0.1828122 0.043340869 1.5668128
-0.027257016 0.052259151 1.5278946
0.032124072 0.074659087 1.5135254
-0.22828577 0.12609531 1.5272024
-0.19339842 0.10463186 1.5726534
-0.021557372 0.13420695 1.5744855
0.051083017 0.14817335 1.5495744
0.13900666 0.16556746 1.5204536
0.21105222 0.19171156 1.5053964
0.073149368 0.22124818 1.5850335
0.15511218 0.24481903 1.5630695
0.24419709 0.256127 1.52978
0.3330825 0.2838656 1.509812
0.18481873 0.31089869 1.5901707
0.25778514 0.33314133 1.5717795
0.35078162 0.34915358 1.5445716
0.40412608 0.36262098 1.5319459
0.36590755 0.42008534 1.5834287
0.40620574 0.42906469 1.573167
0.67488015 0.49566114 1.5909282
0.75667584 0.49152023 1.5809103
0.82663167 0.48649266 1.5739892
-0.31119841 0.59812367 1.5930003
-0.2427481 0.59567684 1.588204
-0.14658882 0.59233516 1.5798678
-0.048306674 0.58695096 1.5718778
0.051524088 0.58137465 1.5627631
0.15139192 0.57620239 1.5526381
0.25010037 0.56845272 1.5460917
0.3496263 0.55688947 1.547073
0.45045799 0.54691303 1.5469851
0.55103135 0.53721154 1.5474428
0.64987051 0.52834016 1.5463799
0.74716967 0.52230936 1.5346305
0.81342167 0.51248324 1.5302966
-0.81969488 0.65478617 1.5840915
-0.74633265 0.65159899 1.5816081
-0.64667094 0.64454168 1.5750895
-0.54828346 0.63598961 1.5710719
-0.44912675 0.63050634 1.5653055
-0.34935454 0.62422955 1.5603778
-0.2504591 0.62093663 1.5497966
-0.15100476 0.61902046 1.5365199
-0.052277919 0.61634701 1.523463
0.044456568 0.61033201 1.5147933
0.141691 0.60506117 1.5065961
0.205268 0.60208714 1.5020001
0.059467919 -0.62309456 1.6128311
0.1471853 -0.61994976 1.6081309
0.24459034 -0.61532718 1.6057775
0.3419638 -0.6091581 1.6048703
0.43882331 -0.60469294 1.6017978
0.52886546 -0.60122478 1.6010005
-0.004973324 -0.51063061 1.601966
0.052379258 -0.549555 1.6451288
0.15034987 -0.55110294 1.6474669
0.25014007 -0.55057418 1.6404697
0.34976989 -0.54956371 1.6341043
0.450216 -0.54968166 1.628126
0.54870778 -0.54764163 1.6223675
0.64936334 -0.54374081 1.6201137
0.74702954 -0.53675216 1.6178198
0.82432646 -0.52313226 1.6148585
-0.01559718 -0.43936896 1.6188998
0.034236278 -0.46432766 1.6719494
0.15267649 -0.48177555 1.68787
0.25275657 -0.47366455 1.6820307
0.35213569 -0.4664931 1.6784629
0.45093444 -0.46206167 1.675714
0.54983062 -0.45517361 1.6726266
0.64986891 -0.45060071 1.6709257
0.7501334 -0.4512226 1.6659932
0.83744889 -0.44798303 1.6602544
-0.030314272 -0.3456766 1.6387894
0.0068417685 -0.37235025 1.6868142
0.66242099 -0.39752588 1.6959995
0.75813472 -0.39516211 1.6949036
0.85673368 -0.38946208 1.6917323
-0.052615058 -0.25083473 1.6471239
0.077276856 -0.22140758 1.623414
0.14610898 -0.23545532 1.6270788
0.23939995 -0.23582333 1.6116982
-0.11013251 -0.12965344 1.6118208
-0.074608304 -0.15600367 1.6559191
0.046705533 -0.19545431 1.6018749
-0.12167334 -0.044185843 1.631229
-0.08367461 -0.06098951 1.6809413
-0.13882945 0.037654303 1.6372284
-0.098271534 0.019779837 1.6959997
-0.025057638 0.18233299 1.6036434
0.0056688967 0.19409931 1.6018753
-0.018619739 0.24605078 1.64306
0.041699424 0.25957665 1.6244764
0.11637804 0.2835758 1.6061958
-0.013335649 0.31991509 1.6860186
0.055625446 0.34208545 1.6691329
0.14786184 0.35250267 1.6347769
0.23704337 0.37757003 1.611647
0.30266735 0.39698303 1.6010002
0.89733028 0.39724064 1.6945001
0.90448844 0.39619339 1.6942002
0.078496248 0.45661214 1.6959994
0.16084416 0.44511932 1.6802921
0.25232899 0.45334673 1.6570777
0.34085953 0.46420431 1.627198
0.46001393 0.4789741 1.6508948
0.55079818 0.47123554 1.6517588
0.64932245 0.46453974 1.6476095
0.74930042 0.45375404 1.6476433
0.84505641 0.44085494 1.6513987
0.90317738 0.40905538 1.6798003
-0.72260427 0.59082842 1.6809709
-0.64696383 0.58556604 1.6719311
-0.54774374 0.58081794 1.6612165
-0.44881296 0.57556838 1.6544703
-0.34981754 0.57041264 1.64663
-0.25023758 0.56304938 1.6471479
-0.14989994 0.55392379 1.6455312
-0.050968289 0.54200214 1.6461452
0.049506448 0.53177941 1.64443
0.14785765 0.5262723 1.6380826
0.24720816 0.51961881 1.627219
0.34570488 0.51307219 1.6186216
0.44392931 0.50880563 1.6105113
0.53650576 0.50400978 1.602518
0.62524325 0.50020736 1.601
-0.84007251 0.63963002 1.6085927
-0.74465942 0.62473232 1.6256256
-0.65321761 0.61778474 1.6216705
-0.55579031 0.61066622 1.6135385
-0.45747468 0.60740757 1.6080419
-0.36542317 0.6036498 1.6015836
0.067452386 -0.43631968 1.7169148
0.14888996 -0.431936 1.7166387
0.24605647 -0.42430183 1.711998
0.34518263 -0.4178333 1.7069457
0.44893357 -0.41276592 1.7053748
0.54627383 -0.40555939 1.703998
0.61141324 -0.40296325 1.7040004
-0.0025514355 -0.30484349 1.7040001
0.053659648 -0.34879678 1.7498907
0.14988501 -0.3514038 1.7627857
0.25055274 -0.3508448 1.7566316
0.35080895 -0.35133007 1.7491628
0.44964743 -0.35070521 1.7385237
0.54978448 -0.3499653 1.7309052
0.64922887 -0.34856921 1.7257568
0.74932319 -0.34707299 1.7228801
0.84827352 -0.34144309 1.7223039
0.90770119 -0.31853122 1.7287972
-0.012516956 -0.23543403 1.7181946
0.022663036 -0.25535277 1.7611446
0.15017012 -0.29273126 1.7924002
0.25589889 -0.29337129 1.7902462
0.35306007 -0.28649336 1.7853334
0.45323396 -0.2791281 1.7793599
0.55446035 -0.26936808 1.7763759
0.65190971 -0.26093158 1.7747833
0.75154531 -0.25603631 1.7722031
0.85016191 -0.25515988 1.7705604
0.91706491 -0.24626359 1.768362
-0.031396724 -0.15620761 1.7201496
0.0066539971 -0.1936512 1.7612857
0.55630404 -0.15973763 1.7746284
0.94227952 -0.19598173 1.7940001
-0.072132431 -0.019219425 1.7137653
-0.083512425 0.013043619 1.7190734
-0.0081057521 0.36930054 1.719406
0.025718663 0.38452095 1.7107652
0.4947561 0.39267579 1.7811669
0.55397993 0.38915065 1.7789229
0.65523463 0.3850199 1.7708808
0.7512151 0.380171 1.7656116
0.85039681 0.37760243 1.7536323
0.92232007 0.36203024 1.7626714
-0.51260865 0.49788421 1.7874287
-0.44404015 0.49207342 1.7846597
-0.34944335 0.49009132 1.7810996
-0.24742514 0.48576638 1.7733152
-0.14741807 0.47921196 1.763537
-0.046493888 0.47231507 1.7560117
0.047323667 0.45781687 1.7386582
0.13978449 0.46870562 1.7207729
0.21385226 0.4752802 1.7040008
0.48237595 0.43022555 1.730096
0.54750919 0.4210704 1.7308201
0.6474179 0.41534859 1.7247478
0.74746215 0.41070351 1.7181494
0.83646101 0.40689027 1.7120936
-0.70856053 0.56681418 1.710113
-0.64604455 0.54283994 1.7445012
-0.55181438 0.53255773 1.7447468
-0.45083243 0.52595502 1.7363987
-0.35181075 0.52109462 1.7315954
-0.25413153 0.51634574 1.72508
-0.15350597 0.5115521 1.7175927
-0.053065766 0.50617564 1.7081562
0.021180965 0.50191575 1.7039996
0.069736943 -0.30460918 1.803
0.14930993 -0.30344716 1.803
0.062530324 -0.27140391 1.8079126
0.14362316 -0.29319 1.8033457
0.2638641 -0.28407457 1.8068101
0.34392181 -0.27471539 1.8030007
0.40572587 -0.27273384 1.8030001
0.58915192 -0.21286018 1.8068899
0.64642483 -0.21102513 1.8058074
0.73053467 -0.20806096 1.8040823
0.84663868 -0.20568357 1.8029994
0.91213214 -0.20329633 1.8030001
0.58934063 -0.17912741 1.815285
0.65117413 -0.16891766 1.8266309
0.74688125 -0.17016162 1.8206637
0.8528558 -0.15404618 1.8403736
0.93535525 -0.14631447 1.8429114
0.86594588 -0.083256423 1.8875422
0.95016485 -0.081326701 1.8861068
1.0008165 -0.067310013 1.8930001
0.75979966 0.29593173 1.8909271
0.86092013 0.29218483 1.887803
0.94996351 0.28882247 1.8816537
1.003194 0.27670124 1.8929998
-0.30196816 0.39855403 1.8930001
-0.29052588 0.39855403 1.893
-0.10503059 0.39775348 1.8914286
-0.057472382 0.39586681 1.8879384
0.49862066 0.38583294 1.8030001
0.55644208 0.35109419 1.8458273
0.64923078 0.33928743 1.8456684
0.74965578 0.33089641 1.843084
0.85117763 0.32724544 1.838448
0.93631518 0.31985629 1.8333426
-0.61447167 0.48610669 1.8239163
-0.54713577 0.4691492 1.8472191
-0.4514946 0.45740652 1.850493
-0.34831837 0.44940886 1.8464192
-0.25144851 0.44097963 1.8485593
-0.15214886 0.43176225 1.8477622
-0.061612427 0.42651019 1.8323067
-0.62082458 0.50313699 1.8052651
-0.57245427 0.50195557 1.8041115
0.83765435 -0.12255198 1.9503797
0.85856527 -0.04238721 1.93365
0.9496004 -0.032583959 1.9175327
1.0079541 -0.020408964 1.9245415
0.8692221 0.044882342 1.9683908
0.94987661 0.050442763 1.9646119
1.0200456 0.058700662 1.9644115
0.87858742 0.10769987 1.9919996
0.93245554 0.10457061 1.9920002
1.0305587 0.10687368 1.9919989
0.58428901 0.28044823 1.9540496
0.65158999 0.27406269 1.9516982
0.75040931 0.26594791 1.947204
0.8496058 0.25775224 1.945994
0.95197129 0.24855839 1.9478316
1.0239235 0.23354775 1.960098
-0.50707877 0.39240158 1.9692006
-0.44876373 0.38628414 1.9674633
-0.34604529 0.38036612 1.9608334
-0.24886426 0.37666211 1.9551451
-0.15090865 0.37132901 1.9511741
-0.065352075 0.36345121 1.9486061
0.57283121 0.30723521 1.9102155
0.63616788 0.30364364 1.9072415
-0.52739024 0.42051154 1.9232899
-0.44974962 0.41413769 1.9230229
-0.36018297 0.41052321 1.9141668
-0.24020848 0.40580526 1.9076499
-0.15866776 0.40143281 1.9030001
0.84419942 -0.12552479 2.045779
0.84673905 -0.049980283 2.0437975
-0.16116604 0.093595713 2.052001
0.84933645 0.052114185 2.0416071
-0.16642176 0.13368055 2.0714488
0.66548705 0.19045252 2.0803211
0.75390708 0.186175 2.0731902
0.85923308 0.15909334 2.0500138
0.95214462 0.15501063 2.0344455
1.0390761 0.15964486 2.0373173
-0.40558213 0.2992624 2.0900002
-0.35189173 0.29824725 2.0900002
-0.23933299 0.29540017 2.0878322
-0.14990166 0.2925849 2.0797422
-0.071622625 0.28759938 2.0795522
0.59605044 0.24559371 2.0152001
0.65068299 0.225555 2.0361733
0.74804711 0.21898599 2.0276723
0.84694612 0.21385309 2.0172098
0.94704235 0.20987509 2.0136855
1.0271202 0.2061615 2.0077181
-0.43285662 0.34722424 2.029175
-0.3518205 0.33217013 2.0455024
-0.25149754 0.3269276 2.040998
-0.14796723 0.32069445 2.0257292
-0.072692119 0.31583095 2.0313652
0.84742028 -0.12692052 2.1490579
0.85275644 -0.049074937 2.1494958
0.8569836 0.051344443 2.1515999
-0.20058964 0.19696231 2.197
-0.14596137 0.18368442 2.1364405
-0.084698215 0.18266611 2.1626191
0.66963077 0.15540898 2.1400113
0.74999905 0.13931014 2.1515596
0.83938134 0.13029528 2.1440194
-0.40441099 0.29553118 2.1046002
-0.33853462 0.26934236 2.1395493
-0.25014573 0.26090074 2.1467454
-0.150098 0.24557227 2.1374054
-0.080025636 0.24112514 2.1353502
-0.34147879 0.30098063 2.102
0.85224462 -0.13090648 2.2430012
0.85712755 -0.049040347 2.2465272
0.69256145 0.08736711 2.2443547
0.75158852 0.076742634 2.2513187
0.84304518 0.061021805 2.245039
-0.24926344 0.18248969 2.26072
-0.11887293 0.16483727 2.2396717
-0.093370035 0.15216386 2.2360907
0.68547207 0.11280645 2.2173243
0.72030485 0.10570998 2.2142663
0.81096518 0.10275719 2.2110002
-0.30735394 0.21724963 2.2267497
-0.25683755 0.21473686 2.2287779
0.86107427 -0.13564542 2.3413451
0.76903522 -0.0081753191 2.3849876
0.85268897 -0.036059827 2.3570011
-0.10790781 0.098154798 2.3970001
-0.097420745 0.097602852 2.3970001
0.75716406 0.028633535 2.3302543
0.83505625 0.020681612 2.3232861
-0.23822436 0.14960574 2.3248689
-0.13000897 0.12836775 2.3522708
-0.089024268 0.13379005 2.3192785
0.86801618 -0.13385856 2.4422319
0.77795601 -0.043595385 2.4442701
0.84354413 -0.058548778 2.4455981
-0.12559696 0.076802216 2.4345698
-0.095297627 0.070210576 2.4317393
-0.1620362 0.10593823 2.414
0.85587651 -0.13418204 2.5571826
0.79385078 -0.085093834 2.5049999
0.83389771 -0.091145612 2.502542
0.87453908 -0.1774707 2.6250691
-1.5621358 -1.1236739 2.7880001
-1.607481 -1.1078765 2.8820002
-1.582269 -1.1122515 2.8438284
-1.6098717 -1.1072932 2.9060001
-1.6301662 -1.0512712 2.9426129
-1.5940487 -1.0492865 2.9149284
-1.679238 -1.0214467 3.0079997
-1.6922978 -1.1047953 3.1759999
-1.6738949 -1.0863535 3.1585996
-0.9205898 -1.3204781 3.2608001
-0.89208406 -1.307726 3.2210002
-0.88238001 -1.2960993 3.2060001
-1.716258 -1.1410214 3.2496524
-1.6602486 -1.1349801 3.2667439
-1.6713712 -1.0931926 3.2060003
-0.97218984 -1.3645259 3.3716667
-1.8058827 -1.2170805 3.3834
-1.7515241 -1.216689 3.3900466
-1.6432091 -1.2193682 3.3807414
-1.5576831 -1.2228528 3.3923647
-1.4893457 -1.228605 3.3970001
-1.73639 -1.1879666 3.3540008
-1.6439162 -1.1803049 3.3411882
-1.5859005 -1.183888 3.348563
-1.0224808 -1.400806 3.4650002
-1.012096 -1.3874279 3.4378002
-1.8093975 -1.2450873 3.4480002
-1.7494148 -1.2534274 3.4484847
-1.6435071 -1.2626668 3.4479992
-1.5514848 -1.2613305 3.4463401
-1.4642761 -1.2582598 3.439095
-1.934972 -1.4498868 3.5740006
-1.8940805 -1.4510441 3.5740001
-1.1240841 -1.4329679 3.5739994
-1.0722543 -1.4168046 3.529552
-1.9168409 -1.3167961 3.5740006
-1.8441569 -1.3163474 3.5590243
-1.7496006 -1.3220117 3.5487738
-1.6479748 -1.3207939 3.5307729
-1.5518935 -1.3320001 3.5464246
-1.4514604 -1.3367128 3.5477316
-1.3900461 -1.336737 3.548059
-1.221298 -1.3862348 3.5740001
-1.0719186 -1.3982964 3.5190001
-1.8549383 -1.2834026 3.5208952
-1.7445459 -1.2876331 3.5009997
-1.6604018 -1.2936791 3.5009997
-1.5270824 -1.2932255 3.5009999
-1.472666 -1.2926209 3.5009999
-2.0172276 -1.4231386 3.6811113
-1.949088 -1.436056 3.6428499
-1.8478235 -1.438031 3.6413581
-1.7494966 -1.4428434 3.6488757
-1.6471516 -1.443746 3.6496375
-1.5510733 -1.4413818 3.6515663
-1.4494301 -1.4437925 3.6411402
-1.3496181 -1.4404626 3.6265943
-1.2523504 -1.4352434 3.612
-1.1725544 -1.4362473 3.6162214
-2.0092683 -1.3825219 3.6900003
-1.9448853 -1.3722535 3.6376388
-1.8497407 -1.3767835 3.6357477
-1.7508285 -1.3813142 3.6333413
-1.6579533 -1.383577 3.6306119
-1.5546755 -1.3835093 3.6157997
-1.4459915 -1.3890707 3.6119998
-1.353821 -1.3882182 3.6188197
-1.2757895 -1.3906568 3.6119998
