# .PCD v0.7 - Point Cloud Data file format
VERSION 0.7
FIELDS x y z
SIZE 4 4 4
TYPE F F F
COUNT 1 1 1
WIDTH 573
HEIGHT 1
VIEWPOINT 0 0 0 1 0 0 0
POINTS 573
DATA ascii
-0.50872469 -0.32530937 0.93696636
-0.48227331 -0.34292534 0.97423917
-0.51287669 -0.24672471 0.95825613
-0.49286035 -0.27137113 0.98383343
-0.52645075 -0.15588845 0.97702456
-0.54495871 -0.061709892 0.98867208
-0.55924368 0.0046715965 0.99739999
-0.42123556 -0.41335192 1.057135
-0.39616135 -0.42850286 1.0930582
-0.44165432 -0.34974754 1.0459001
-0.50161594 -0.2059662 1.0045854
-0.46689421 -0.25082919 1.0480894
-0.51116377 -0.13783877 1.0199209
-0.48329875 -0.15707554 1.0645139
-0.52397907 -0.046323203 1.0415163
-0.49337491 -0.075929664 1.0860008
-0.5426898 0.047823217 1.0514872
-0.56149745 0.14678144 1.0634001
-0.6003204 0.2982707 1.0700001
-0.58043307 0.24524356 1.076848
-0.60492438 0.35534742 1.0877264
-0.59406805 0.32205981 1.0883763
-0.61190253 0.40704277 1.097
-0.40086019 -0.4022336 1.1025
-0.36333054 -0.43374091 1.1529626
-0.40911177 -0.33550289 1.1153827
-0.37985548 -0.35609904 1.1601896
-0.42167062 -0.24493445 1.1368672
-0.39035663 -0.26771271 1.1827167
-0.44159341 -0.15019552 1.1468655
-0.50258601 -0.0097303996 1.1032612
-0.46779701 -0.050734431 1.1481043
-0.51167166 0.062480595 1.1201527
-0.48301265 0.04348217 1.1642373
-0.52381629 0.15380192 1.1402627
-0.4934608 0.13152541 1.186613
-0.5451563 0.24960774 1.1478939
-0.60407054 0.38652065 1.1069843
-0.57066578 0.33901286 1.1446412
-0.60818458 0.4045746 1.1082503
-0.27263749 -0.50921589 1.2781039
-0.31800994 -0.44260204 1.2293131
-0.28720364 -0.45935678 1.2750385
-0.33353293 -0.34887001 1.2462332
-0.29632401 -0.38500059 1.2935381
-0.40003192 -0.20448676 1.2010001
-0.35973611 -0.24954823 1.2475302
-0.40934953 -0.13519718 1.2150674
-0.37863529 -0.15526868 1.2598518
-0.42155948 -0.044312153 1.2361836
-0.39076337 -0.064870797 1.2825279
-0.44026133 0.050136846 1.2478579
-0.50249416 0.19727293 1.2010001
-0.46524784 0.14974675 1.2470315
-0.51017183 0.26120737 1.2189168
-0.48063853 0.24058244 1.2628837
-0.52303827 0.31380787 1.2196771
-0.49837926 0.30248451 1.2575001
-0.22693832 -0.52221757 1.3494627
-0.19360442 -0.5408833 1.3936878
-0.24745879 -0.45027292 1.3483981
-0.3060132 -0.31797749 1.3112562
-0.27234778 -0.35303089 1.3523889
-0.31708691 -0.24290271 1.3295046
-0.28599602 -0.25993401 1.3760564
-0.33279356 -0.14898378 1.3486829
-0.29522383 -0.18397416 1.3948063
0.080000371 -0.10883354 1.3951423
0.15253386 -0.11326879 1.3855392
0.25082305 -0.11730755 1.3767989
0.31648847 -0.11703064 1.3858852
-0.3592028 -0.049577486 1.3489827
0.071473613 -0.076790154 1.3910857
0.15325916 -0.052766271 1.3722919
0.24984337 -0.048308268 1.3408079
0.3119556 -0.051117744 1.3407456
-0.40814525 0.066424601 1.3137884
-0.37789932 0.045817856 1.3599484
0.18124871 0.011758261 1.3938764
0.25672683 0.032630693 1.3791474
0.31081182 0.046294194 1.3695279
-0.42018729 0.15461589 1.3339167
-0.38888636 0.13884318 1.3813585
-0.43696505 0.22596285 1.3355727
-0.39556167 0.20683473 1.3895624
-0.11578524 -0.60384911 1.4926113
0.78257823 -0.60340112 1.4960002
-0.15785252 -0.54554152 1.4530076
0.78640401 -0.59897935 1.4960001
-0.21045633 -0.43613017 1.4191893
-0.17896116 -0.45705038 1.4621257
-0.224751 -0.34538895 1.4415958
-0.19150825 -0.36918041 1.485339
-0.24755655 -0.25017363 1.4481024
0.26997757 -0.20245536 1.4959996
0.32084602 -0.20188674 1.4960002
-0.30591896 -0.12219165 1.4123404
-0.27171949 -0.15328793 1.4539864
-0.11154103 -0.11311489 1.4527757
-0.045955654 -0.132617 1.4524564
0.048120104 -0.14506043 1.444849
0.14888959 -0.15992045 1.4481989
0.24968545 -0.16680144 1.4475949
0.33830819 -0.162535 1.4546863
-0.31608036 -0.042229347 1.428827
-0.28617674 -0.059665095 1.4744238
-0.11435208 -0.06294886 1.4735799
-0.049162578 -0.051276244 1.4541445
0.041202098 -0.039329484 1.4244344
0.11672564 -0.009283022 1.4091103
-0.33072215 0.052454945 1.4478335
-0.29679275 0.021155212 1.4929434
-0.024551446 0.017221058 1.4886417
0.055613983 0.042626828 1.4689195
0.1475251 0.053546418 1.4354874
0.23968957 0.077811174 1.4144775
0.3092449 0.095137373 1.4066389
-0.35512084 0.13861986 1.4437836
0.088174157 0.10471924 1.4948597
0.1604706 0.12980786 1.4780476
0.25029626 0.14835 1.4534547
0.31217831 0.15061149 1.4383382
-0.38970867 0.20208247 1.4056667
0.27074659 0.21667729 1.4886967
0.31702858 0.22783664 1.4867704
-0.0086989934 0.59916526 1.4960002
0.063994214 0.59673023 1.4938549
0.15311602 0.5926429 1.4874933
0.2525439 0.58807123 1.4801762
0.35215649 0.58312309 1.4736162
0.4520264 0.57950824 1.4664389
0.5516215 0.57351035 1.4616079
0.65065372 0.56573576 1.4563333
0.74325252 0.55400431 1.4534781
0.80473524 0.52137333 1.4928638
-0.31624678 0.62937355 1.4960002
-0.24426365 0.62541187 1.4942379
-0.14621648 0.61935401 1.4902747
-0.048277061 0.61366659 1.4853668
0.048455171 0.60911477 1.4778826
0.14892438 0.60722059 1.4660208
0.24895859 0.60545838 1.4552429
0.34821743 0.60352117 1.4438604
0.42879468 0.60224199 1.4365081
0.51137513 0.60115582 1.4330001
-0.10454912 -0.60708374 1.5134544
-0.073140599 -0.61726111 1.5637558
0.18636551 -0.64364803 1.5930002
0.27095813 -0.64498943 1.5929998
0.35669452 -0.63924444 1.5925611
0.45334756 -0.63662505 1.5909441
0.55082923 -0.63476896 1.5911286
0.65542543 -0.6293869 1.5890307
0.74499303 -0.62053764 1.5734637
-0.11603192 -0.54204851 1.5261894
-0.085824467 -0.55913633 1.5691198
0.7789669 -0.56810331 1.5491439
0.81075597 -0.54227024 1.5554047
-0.13300145 -0.44873053 1.5441836
-0.094874829 -0.48417142 1.5883998
-0.20198409 -0.30545378 1.5020002
-0.16135754 -0.35071462 1.5472858
-0.2113184 -0.2383188 1.5186507
-0.18155892 -0.25637293 1.5605537
-0.022227494 -0.21582133 1.5678558
0.050955657 -0.22151472 1.556303
0.15083365 -0.22655162 1.5487354
0.24895597 -0.23202272 1.5469228
0.3436777 -0.2287585 1.5404938
0.40853006 -0.22532427 1.5618384
-0.22486651 -0.14520958 1.5399737
-0.19280833 -0.17018744 1.5826334
-0.038687564 -0.18363605 1.5195346
0.037199534 -0.19166118 1.5120529
0.14326449 -0.19796516 1.5053396
0.21304989 -0.19949435 1.502
0.383764 -0.18904857 1.5122001
0.40172106 -0.1929982 1.529
-0.24881905 -0.049033232 1.5458508
-0.11642837 -0.012561323 1.5102884
-0.090243049 -0.0041222959 1.5026561
-0.30411735 0.085593939 1.5108267
-0.27300468 0.044690903 1.5465991
-0.11310562 0.049321976 1.5466692
-0.055900265 0.056870814 1.5262514
0.022224084 0.083268248 1.5088289
-0.31019142 0.11437503 1.5118877
-0.2934742 0.10537978 1.5312643
-0.10887526 0.11408526 1.583872
-0.042317543 0.13810025 1.57135
0.049189944 0.15027608 1.5393261
0.1378341 0.17256436 1.5151933
0.20598523 0.19492011 1.5023046
-0.0033022726 0.20150393 1.5930001
0.062656827 0.22443496 1.5810845
0.15318921 0.24660818 1.5576875
0.24336118 0.25883865 1.5277086
0.3171846 0.27734864 1.5183021
0.18043734 0.31355435 1.5876046
0.25576955 0.33468643 1.5710957
0.32062837 0.34748173 1.5600487
0.33170584 0.40834033 1.590156
0.46924591 0.49595916 1.5912029
0.55587375 0.49298754 1.5833843
0.65291572 0.48991886 1.5793288
0.75403529 0.48407653 1.5693243
0.82282448 0.47796822 1.5644244
-0.74259818 0.59917551 1.5930003
-0.63856685 0.59661978 1.5902482
-0.54259562 0.59260619 1.5842237
-0.44724861 0.58881962 1.5781989
-0.34905779 0.58566636 1.5723274
-0.24807757 0.58179247 1.5643711
-0.14834885 0.57809711 1.5565665
-0.049531091 0.57251549 1.5499516
0.049839325 0.56515807 1.5482122
0.15013906 0.55608511 1.5479352
0.24950504 0.54695731 1.5475708
0.34926209 0.53656399 1.5462928
0.44900772 0.5299871 1.5441337
0.54840559 0.52560616 1.5364001
0.64924127 0.52062774 1.5319591
0.74697322 0.51451796 1.5232068
0.8086316 0.50900358 1.5137781
-0.83967263 0.62888592 1.5685003
-0.75053734 0.62629676 1.5649869
-0.65082943 0.62254214 1.5550331
-0.55121356 0.62067354 1.5444424
-0.45026985 0.61845672 1.5323976
-0.350676 0.61651659 1.5228544
-0.25326538 0.61200947 1.5166968
-0.15563633 0.6079073 1.5100216
-0.063536182 0.60436738 1.5048523
0.032769516 0.60156834 1.5020001
-0.026795363 -0.62365848 1.6171434
0.048361752 -0.62488484 1.6180727
0.14841278 -0.62368512 1.6119772
0.24945213 -0.622554 1.6095704
0.34625953 -0.61801654 1.6090447
0.4471226 -0.61471683 1.6067744
0.54910457 -0.61345363 1.606393
0.64282185 -0.61029756 1.605359
0.72675377 -0.60563004 1.6024802
-0.038790032 -0.54711878 1.644953
0.049781457 -0.54949641 1.6612866
0.15024871 -0.54997635 1.6545945
0.25012842 -0.55164152 1.6509109
0.34970775 -0.55059421 1.6467687
0.44981879 -0.55095869 1.6429416
0.54996908 -0.55010837 1.6398625
0.64936525 -0.55071193 1.6362576
0.74510789 -0.54675043 1.6342781
0.83181292 -0.51813841 1.640553
-0.10597779 -0.41661233 1.6093462
-0.069693685 -0.45301682 1.6498476
0.066420153 -0.49201959 1.6955258
0.15003185 -0.48939931 1.6937027
0.25152573 -0.48523611 1.6865319
0.35275975 -0.4816204 1.6859925
0.45090678 -0.47732458 1.6836951
0.55217004 -0.47395542 1.683668
0.64917403 -0.47082669 1.6816822
0.75077969 -0.47017303 1.6804692
0.8437351 -0.4644984 1.6768985
-0.118287 -0.34174377 1.6253734
-0.084289663 -0.35991812 1.6735251
-0.13636835 -0.24872585 1.6439853
-0.056892667 -0.26914445 1.6543934
0.049860384 -0.2657755 1.6296738
0.1443737 -0.26753294 1.6127644
0.22597307 -0.26546082 1.6014472
-0.20226254 -0.10689362 1.601
-0.16206323 -0.15175585 1.6444906
-0.21211433 -0.038911249 1.6170604
-0.17926435 -0.056049358 1.6632785
-0.22587213 0.025155719 1.621038
-0.19442208 0.0075740796 1.6617693
-0.10699479 0.16122186 1.6130998
-0.069908507 0.17936826 1.6107022
-0.10503663 0.24062106 1.6652634
-0.049900971 0.24926539 1.645655
0.040706381 0.2677387 1.6191672
0.11258289 0.28958696 1.6037656
-0.031626917 0.32187834 1.6848441
0.053291164 0.34565976 1.6635741
0.14624505 0.35445666 1.6306933
0.23757727 0.38045764 1.6097838
0.3089771 0.39386362 1.6010004
0.77188849 0.39808348 1.6960001
0.86216152 0.39410779 1.6896603
0.90485758 0.38303903 1.6919093
-0.24272642 0.49672237 1.6956532
-0.14206813 0.49435037 1.690575
-0.047047116 0.48939708 1.6811477
0.05467945 0.47981036 1.6747608
0.15623495 0.46087551 1.6685703
0.25024402 0.45722693 1.6462321
0.34898636 0.46609402 1.6373762
0.45060816 0.46330017 1.6469338
0.54962009 0.45307064 1.6482377
0.65020663 0.44552645 1.6464648
0.74831927 0.43700367 1.646443
0.8405081 0.42846915 1.644977
-0.82770485 0.57884139 1.6473726
-0.75020999 0.5722478 1.6501602
-0.65009439 0.56357378 1.6470186
-0.55101371 0.55391216 1.6466086
-0.44950294 0.54517448 1.6460817
-0.35093772 0.53780723 1.6465783
-0.25123331 0.53203529 1.6447922
-0.15184078 0.52797592 1.6391467
-0.051387843 0.52297384 1.6308081
0.046323515 0.51675457 1.6233088
0.14639063 0.51233763 1.6169045
0.24520838 0.50770229 1.6088073
0.34531546 0.50342786 1.6021222
0.40865657 0.50082183 1.601
-0.85006243 0.60704225 1.6046451
-0.76556683 0.60514683 1.6021889
-0.019367533 -0.50180203 1.7040002
-0.02284969 -0.44416067 1.7226069
0.047519952 -0.44476774 1.7249184
0.15047786 -0.44127771 1.7219235
0.24876614 -0.43627515 1.7197959
0.34855971 -0.43230429 1.7150257
0.44963697 -0.42640722 1.7149628
0.54593283 -0.42442361 1.7103235
0.65082473 -0.42036876 1.7114884
0.74955684 -0.41952279 1.7095532
0.84716135 -0.41713375 1.7086103
0.90089351 -0.40637073 1.7040001
-0.041061923 -0.35073808 1.7487968
0.048527643 -0.36082709 1.7734532
0.15044644 -0.36186731 1.7685766
0.25068447 -0.35973862 1.765129
0.35172099 -0.35427251 1.7645251
0.44978508 -0.35005823 1.7596723
0.54984266 -0.35110545 1.7543609
0.64956403 -0.35063934 1.750513
0.74963641 -0.3508583 1.7488929
0.8505519 -0.35153654 1.7475371
0.91250193 -0.33631533 1.7529236
-0.10616679 -0.22453909 1.7084616
-0.071682513 -0.25910571 1.7439231
0.32882634 -0.29770756 1.794
0.46116075 -0.29340583 1.791702
0.55023384 -0.28851005 1.7879515
0.6491459 -0.28467602 1.7882704
0.74814308 -0.28165385 1.7865393
0.84926021 -0.28211799 1.785991
0.92489785 -0.27764317 1.7847826
-0.11216994 -0.1820464 1.7109581
-0.09526889 -0.19264245 1.7278824
-0.15772822 -0.028233042 1.707719
-0.09672159 0.29990545 1.7040001
-0.10019081 0.32515633 1.7129999
-0.056686662 0.36099625 1.7220328
0.016416056 0.38744169 1.7079512
0.39811456 0.39009577 1.7745001
0.45286372 0.38332307 1.7701316
0.55134547 0.37804437 1.7620103
0.6528185 0.37371758 1.7541145
0.75221366 0.36939469 1.7498488
0.85122663 0.36307439 1.7484715
0.91935635 0.34819293 1.7529263
-0.72876447 0.48766944 1.7738581
-0.64797598 0.48367181 1.7730916
-0.54629999 0.47629735 1.7611947
-0.44906968 0.47538584 1.7561252
-0.34994957 0.47111428 1.7505463
-0.24883719 0.46517721 1.7465993
-0.15104714 0.45885736 1.7474424
-0.052007027 0.4456971 1.747149
0.045813881 0.44302565 1.7299955
0.13066925 0.44937104 1.7119442
0.3879365 0.42027453 1.7240362
0.44558761 0.41519141 1.7219591
0.54557449 0.40808812 1.7145286
0.64201134 0.40576011 1.7091863
0.75581259 0.40290409 1.7040002
-0.80277139 0.53724736 1.7070003
-0.746746 0.52224934 1.7278142
-0.65319228 0.51475114 1.725117
-0.55092806 0.51033878 1.7145531
-0.45751643 0.50721747 1.707929
-0.35188091 0.50237101 1.7045007
-0.29977599 0.50001705 1.7040001
-0.014701839 -0.32111418 1.8032439
0.047899432 -0.32177603 1.8030001
0.15012519 -0.32006332 1.8030008
0.26110309 -0.31181356 1.803437
0.32937872 -0.30711472 1.8043247
-0.029830946 -0.28614673 1.8068892
0.38278762 -0.29683456 1.8030003
0.47452959 -0.27509966 1.8060918
0.55272222 -0.24007986 1.8214285
0.65118378 -0.23531237 1.8181762
0.74963832 -0.23197952 1.8176795
0.84973788 -0.23352383 1.8182582
0.92668194 -0.2284195 1.8182473
0.55851948 -0.18538426 1.8505753
0.64106232 -0.18823099 1.842669
0.76366925 -0.1728193 1.8672653
0.84833306 -0.16567877 1.8728511
0.94987541 -0.1652066 1.8758229
0.46797416 0.293892 1.8922144
0.55405796 0.29371393 1.8896849
0.65454507 0.28841251 1.8839198
0.75127184 0.2837956 1.874676
0.85216278 0.28157046 1.8714732
0.94748062 0.27764228 1.8669538
1.0034397 0.255961 1.89025
-0.60600579 0.39855403 1.8930001
-0.55087453 0.39622584 1.8929993
-0.44620693 0.39246541 1.8861493
-0.35119948 0.3849161 1.8782084
-0.24572092 0.38573638 1.8743514
-0.1524028 0.38104996 1.8626362
-0.099227183 0.39206052 1.8030001
0.46356446 0.33745784 1.8444762
0.54974222 0.32871005 1.8402522
0.64686084 0.32351455 1.8299087
0.74747163 0.31842613 1.8266802
0.84838432 0.31615803 1.8221189
0.93643248 0.31152952 1.816601
-0.71607572 0.46026409 1.8156365
-0.64856291 0.43830407 1.8440559
-0.55122966 0.42760289 1.8467749
-0.45192066 0.42516866 1.8336402
-0.34924412 0.42192128 1.8311239
-0.25361049 0.41746196 1.825453
-0.15158442 0.41316363 1.8140893
-0.098448738 0.41307861 1.8030002
0.76207924 -0.13205764 1.9332151
0.84998488 -0.11617158 1.9061364
0.94481564 -0.11825556 1.9083879
1.0042255 -0.10639923 1.903
0.77472961 -0.053584479 1.9540225
0.85009086 -0.050350841 1.9441109
0.95135885 -0.050886948 1.9471207
1.0143667 -0.0400966 1.9504685
0.78390938 0.021581041 1.986676
0.8438381 0.021489734 1.9857838
0.95077378 0.017938521 1.9859506
1.0268035 0.024885692 1.9878802
0.85156173 0.19819301 1.9919999
0.9589662 0.19605249 1.989831
1.0273849 0.19331881 1.987636
-0.27819827 0.29899076 1.9920003
-0.15898636 0.29637679 1.9906247
0.48607919 0.26967192 1.9400409
0.54950577 0.25786194 1.9465573
0.650563 0.24911338 1.9474407
0.75063086 0.23814942 1.948119
0.85022956 0.23300755 1.9445814
0.94965577 0.22903626 1.9404455
1.018942 0.22167134 1.9433018
-0.62286228 0.37921417 1.9279387
-0.55035865 0.36265564 1.9470727
-0.44878829 0.35232958 1.9490187
-0.34990069 0.34303606 1.9533799
-0.25173828 0.33999425 1.9470522
-0.16019779 0.33450532 1.9478695
0.44755897 0.31917098 1.9163158
-0.64182299 0.40354759 1.903
0.75914001 -0.14310242 2.0463305
0.76140779 -0.04889366 2.0440662
-0.25653043 0.072145827 2.0480797
0.77334464 0.054882769 2.0368943
0.85336655 0.069873124 2.0175729
0.94728625 0.066166893 2.0196748
1.0340948 0.074057497 2.0256746
-0.25840297 0.12357852 2.0813315
0.56193584 0.18177871 2.066431
0.65208107 0.17620531 2.0579891
0.75571525 0.16230926 2.0529363
0.84880632 0.15184195 2.0506682
0.94970149 0.15038027 2.0512781
1.0440227 0.14367497 2.0565519
1.1067588 0.1268284 2.0861764
-0.51711142 0.28388667 2.0328574
-0.45146921 0.27885044 2.0677872
-0.34797135 0.27564326 2.0538628
-0.25096402 0.27119777 2.0485976
-0.16929325 0.27115798 2.0458393
0.49564961 0.23150684 2.0110002
0.54671437 0.21377419 2.0187922
0.64398134 0.21102181 2.0129354
0.73588717 0.20402935 2.0059404
0.80512393 0.20042527 2.0040002
-0.53089231 0.31706533 2.0151715
-0.45579165 0.30899966 2.0210996
-0.35317379 0.30748296 2.0120325
-0.23512559 0.30595985 2.0112326
-0.19565845 0.30309919 2.0040002
0.75613499 -0.20311518 2.1523755
0.76064456 -0.14838907 2.1471691
0.76347423 -0.051205438 2.1469674
0.59158784 0.096370421 2.1960003
0.65666157 0.091703661 2.1901968
0.75799114 0.065193474 2.1617191
-0.42192358 0.19469832 2.1885343
-0.35168147 0.19045386 2.188395
-0.24217929 0.17032976 2.1359169
-0.18227865 0.15953742 2.1577072
0.56817484 0.13685791 2.1391969
0.65191323 0.12651114 2.1398365
0.73971975 0.11966206 2.1290145
-0.5013876 0.25832617 2.102
-0.4434365 0.23238508 2.1348968
-0.35174301 0.22672534 2.1403649
-0.24665207 0.22276227 2.1251028
-0.17834997 0.22176723 2.1282518
0.76661915 -0.20544545 2.2541873
0.7648415 -0.14954679 2.2501643
0.76771009 -0.055174429 2.243391
0.58333021 0.072474018 2.2363176
0.64921105 0.056118667 2.2481983
0.74645996 0.042538699 2.2461371
-0.4147298 0.17699267 2.2247076
-0.35192257 0.15206018 2.2438879
-0.22451662 0.13080163 2.2452221
-0.19804944 0.11039401 2.2110002
0.56181401 0.1037118 2.2110002
0.76801658 -0.20977095 2.3453417
0.76583713 -0.15129693 2.3409274
0.65822399 -0.021668786 2.3579323
0.75479925 -0.036701038 2.3502297
-0.34226668 0.098293521 2.3080001
-0.23283607 0.074777655 2.3717425
0.59435904 0.029437305 2.3000002
0.64820117 0.014313097 2.3105373
0.74028397 0.0090578571 2.3048625
-0.34305948 0.10391442 2.3000002
-0.23395683 0.10991987 2.3177462
0.76919419 -0.20873608 2.4210832
0.69338644 -0.10333898 2.4840002
0.76198822 -0.13614312 2.4548295
-0.24084678 -0.00037367214 2.4310002
0.66984391 -0.073052272 2.4425249
0.73835182 -0.076874331 2.4351971
-0.24004789 0.03064085 2.4289851
0.68003666 -0.12252986 2.5132635
0.74219292 -0.15557347 2.5469754
0.66330314 -0.097066239 2.5020001
0.76343358 -0.22098283 2.6520052
0.8069151 -0.22629066 2.6589551
0.76272231 -0.19541146 2.6192224
0.80508518 -0.19926348 2.6170001
0.78398985 -0.24988097 2.7
-1.7656152 -1.2124634 3.1470001
-1.7493448 -1.1959056 3.118
-1.8503333 -1.3048141 3.2980001
-1.6851591 -1.3062379 3.2980001
-1.8193349 -1.2771031 3.270206
-1.7800218 -1.2604263 3.2588501
-1.6734104 -1.2924184 3.2954168
-1.9019661 -1.3772265 3.3970001
-1.8505039 -1.3410491 3.3720789
-1.7450507 -1.3305676 3.3590698
-1.6816534 -1.3316336 3.3646305
-1.738891 -1.2944707 3.3300002
-1.9111156 -1.4037981 3.4650002
-1.8855171 -1.4034655 3.4650002
-1.748349 -1.4008061 3.4650002
-1.9064951 -1.3916229 3.4423332
-1.8522495 -1.3839056 3.451237
-1.7335542 -1.3835526 3.4429002
-1.689443 -1.3743211 3.4445999
-1.8538818 -1.4163674 3.5009997
-1.7110392 -1.4115808 3.5009999
-1.6689872 -1.4141872 3.5020583
-1.6921449 -1.3957095 3.5010002
