# .PCD v0.7 - Point Cloud Data file format
VERSION 0.7
FIELDS x y z
SIZE 4 4 4
TYPE F F F
COUNT 1 1 1
WIDTH 559
HEIGHT 1
VIEWPOINT 0 0 0 1 0 0 0
POINTS 559
DATA ascii
-0.55568242 -0.40213865 0.99800009
-0.55206579 -0.37245464 0.99492061
-0.52021939 -0.40836313 1.0297434
-0.48509803 -0.41878378 1.0762826
-0.5284248 -0.34719226 1.0404737
-0.49212751 -0.37561274 1.0861286
-0.54744762 -0.25274777 1.0553044
-0.56962705 -0.15475264 1.0700729
-0.60259092 -0.018187614 1.0842586
-0.58935761 -0.065958023 1.0830948
-0.60933959 0.020736147 1.0943096
-0.43753731 -0.43329436 1.1516199
-0.39705592 -0.47603038 1.196394
-0.50393844 -0.30993751 1.104122
-0.4647215 -0.35116383 1.1486306
-0.51405704 -0.24085821 1.1233754
-0.48238531 -0.25874847 1.1691563
-0.53122872 -0.14742327 1.1442713
-0.49437305 -0.18085806 1.1887822
-0.60087222 -0.00093103002 1.1022002
-0.55954063 -0.049509291 1.1475257
-0.60880041 0.061054289 1.1207775
-0.57942724 0.042909209 1.1619766
-0.61702764 0.15181786 1.1536177
-0.59158313 0.12667514 1.1835831
-0.63426685 0.24521355 1.1765809
-0.65219945 0.3220489 1.1870289
-0.34030744 -0.50907433 1.2760974
-0.4065834 -0.4219479 1.2118565
-0.370455 -0.4521566 1.2539226
-0.41943109 -0.34279403 1.2300572
-0.38597426 -0.36066025 1.2760779
-0.43896303 -0.24884033 1.2461933
-0.39700463 -0.29105189 1.291762
-0.50532442 -0.11494009 1.2078966
-0.46789351 -0.15207639 1.2496917
-0.51686877 -0.041552212 1.2270254
-0.48422372 -0.059497464 1.2715524
-0.53434092 0.052535035 1.2452226
-0.49636716 0.017756714 1.2924253
-0.60325313 0.19154198 1.2025528
-0.56238472 0.14955877 1.2478404
-0.61320853 0.2605468 1.2207603
-0.58052534 0.23874788 1.2635924
-0.62894374 0.31291968 1.2202338
-0.59972423 0.30143425 1.2520001
-0.31087822 -0.51469678 1.3176379
-0.27398354 -0.52857667 1.3693767
-0.32299823 -0.44423568 1.3347976
-0.28730819 -0.4639487 1.3815683
-0.34514081 -0.35029063 1.3481098
-0.29871386 -0.39340958 1.398
-0.40807861 -0.22481628 1.3128774
-0.37252867 -0.25476763 1.3548073
-0.42095557 -0.14459343 1.3326302
-0.38679159 -0.16189729 1.3796507
-0.012381019 -0.10898161 1.3966583
0.052689545 -0.11486697 1.3864781
0.15157992 -0.11786161 1.3755033
0.23502837 -0.11768159 1.3779786
-0.44221541 -0.049247727 1.3478496
-0.39714777 -0.095174678 1.3961538
-0.014652898 -0.08099626 1.3944733
0.056162398 -0.057751149 1.3758754
0.15033169 -0.048455901 1.3416045
0.23227751 -0.052656148 1.336682
-0.50585347 0.079531066 1.309106
-0.46979511 0.04784153 1.3526196
0.09086249 0.007758332 1.3955507
0.15979208 0.03360327 1.3777537
0.22490506 0.047763605 1.3668673
-0.51780534 0.15749905 1.3277209
-0.48507234 0.14134811 1.3739864
0.23572056 0.1021537 1.398
-0.53625631 0.22470564 1.3306627
-0.49378046 0.20397314 1.3845717
-0.16900155 -0.60343909 1.4942502
0.71431184 -0.60369551 1.4908462
-0.22537519 -0.53680867 1.4405563
-0.1876421 -0.56548375 1.4831631
0.75415003 -0.57552373 1.4855911
-0.24955694 -0.4500542 1.4489433
-0.31015161 -0.33020034 1.4176724
-0.27516249 -0.35607159 1.4582442
-0.32453761 -0.24549796 1.4395566
-0.28911799 -0.26976082 1.4822562
0.084310614 -0.20175079 1.4960002
0.14995001 -0.20328318 1.4941816
0.25160712 -0.20388441 1.4943531
0.30262485 -0.20175077 1.4959999
-0.34903985 -0.15062533 1.4505992
-0.13686793 -0.13100766 1.4513037
-0.051729914 -0.14453387 1.4432904
0.048776161 -0.16269976 1.4482828
0.14868398 -0.16700599 1.4442023
0.25343037 -0.16218543 1.4427357
0.31236541 -0.14947741 1.4765314
-0.4091607 -0.028487619 1.415598
-0.37565979 -0.054815922 1.4568547
-0.14154439 -0.056380223 1.4662827
-0.054336172 -0.046276744 1.4320279
0.024677617 -0.017070139 1.4127743
0.28727439 -0.085482068 1.4125516
0.31450734 -0.095413879 1.4822859
-0.42186052 0.055880997 1.4370581
-0.38890842 0.037272587 1.4820191
-0.10897779 0.0088981977 1.4946971
-0.040422577 0.034430757 1.4782773
0.049159925 0.050545894 1.444137
0.13634194 0.075514875 1.4176461
0.2140924 0.097214945 1.4043447
-0.44419658 0.13510926 1.4390161
-0.39666963 0.11603206 1.4960002
0.066875987 0.12599525 1.4840648
0.15183538 0.14744149 1.4565774
0.22647284 0.1513366 1.4344418
0.17908256 0.21512993 1.4889331
0.22869913 0.22674899 1.4817255
-0.1189326 0.59916526 1.4960002
-0.034559827 0.59636492 1.4942958
0.054558385 0.59388125 1.4897391
0.15219858 0.59012318 1.4823079
0.25203407 0.58422381 1.4766955
0.35102412 0.58087653 1.4711179
0.45180878 0.57751346 1.4655071
0.55074769 0.57201105 1.4602761
0.65065867 0.56578737 1.4566154
0.74371791 0.55349541 1.4547956
0.80424613 0.52355742 1.4921743
-0.51816505 0.6301685 1.4960002
-0.43261886 0.62580109 1.4943337
-0.34423131 0.62294364 1.4921823
-0.24643746 0.61783165 1.4897393
-0.14896902 0.61287755 1.4857644
-0.051790636 0.60965317 1.4797512
0.048514649 0.60782772 1.4687934
0.14934745 0.6065805 1.4586971
0.24875319 0.60442817 1.4498454
0.34851471 0.60314912 1.4416211
0.42600462 0.60217214 1.4363869
-0.12634532 -0.61601317 1.5548978
-0.096746437 -0.6335752 1.5922635
0.07278356 -0.63914615 1.5920223
0.15488087 -0.6328463 1.5894279
0.25326782 -0.62533134 1.5870464
0.34913385 -0.61990571 1.5823941
0.44891787 -0.61756366 1.5755138
0.55042273 -0.61685324 1.5689279
0.64930755 -0.61533093 1.5617273
0.71324325 -0.61359 1.5472114
-0.20198408 -0.50086558 1.5020001
-0.15261284 -0.55034441 1.5470142
0.37255907 -0.59707099 1.5930005
0.4566375 -0.58988613 1.5901173
0.5547269 -0.58371371 1.5872186
0.65319741 -0.57717925 1.5835764
0.74072021 -0.544716 1.5390257
0.80866593 -0.51277047 1.5538174
-0.21182683 -0.43499157 1.5190914
-0.17770745 -0.45755136 1.5588825
-0.2281819 -0.34634954 1.5411137
-0.19245593 -0.37151581 1.582226
-0.30166632 -0.20700672 1.502
-0.25692892 -0.24965693 1.5460416
-0.10689126 -0.20665589 1.5408694
-0.046335857 -0.22317281 1.5538042
0.050497983 -0.22989316 1.5484427
0.15069386 -0.23682408 1.5475309
0.24566215 -0.23196761 1.5352464
0.3320094 -0.21869199 1.540544
-0.31206325 -0.13335171 1.5183721
-0.27859205 -0.15728852 1.5594649
-0.11569047 -0.18850026 1.5141736
-0.057528071 -0.19404769 1.509832
0.029293604 -0.19923966 1.5020001
0.3530975 -0.17169708 1.5493873
-0.32796404 -0.045623284 1.5390636
-0.29171726 -0.073303431 1.5838052
-0.172005 -0.013054995 1.5087113
0.32241377 -0.083802566 1.5075999
-0.3547796 0.045670915 1.5424926
-0.14744413 0.050228432 1.5393363
-0.065344989 0.074968971 1.5157875
0.00034498557 0.098339692 1.5020001
-0.38934836 0.10697293 1.5131496
-0.13485298 0.12385245 1.579842
-0.048055176 0.14678741 1.5539693
0.038810067 0.16485903 1.5227828
0.11087317 0.19232368 1.5043633
-0.020789267 0.21608286 1.585431
0.056846507 0.24121167 1.5646651
0.14533329 0.25520778 1.5326018
0.22918932 0.27642581 1.5150933
0.090490095 0.3060199 1.5902421
0.16188057 0.33157593 1.5746865
0.23409653 0.34859031 1.5614369
0.24971862 0.4099223 1.5914786
0.36351368 0.49770764 1.5929999
0.46398288 0.49478334 1.5883824
0.55256909 0.49193802 1.5801395
0.65201902 0.48976615 1.5783032
0.75373673 0.48326039 1.5697141
0.82306159 0.47723126 1.5632604
-0.83705443 0.59573358 1.5907059
-0.74778736 0.59223026 1.5832667
-0.64663929 0.58945864 1.580014
-0.54775459 0.58615524 1.5715791
-0.44957533 0.58170056 1.5671145
-0.34854302 0.5791896 1.5620766
-0.24865271 0.57592601 1.5539211
-0.14927334 0.5721494 1.5489589
-0.050755639 0.56500232 1.5464034
0.049470179 0.55738074 1.547117
0.14976177 0.54943043 1.5472246
0.24968618 0.53960025 1.5471307
0.34994486 0.53217983 1.5461913
0.44868997 0.52788061 1.5405817
0.54920483 0.52423412 1.5337241
0.65047598 0.52041155 1.5301781
0.74672168 0.51345283 1.5236483
0.80797619 0.50813013 1.5137193
-0.83636457 0.61945826 1.5551405
-0.7513271 0.62149692 1.5462142
-0.65086204 0.61910051 1.5363812
-0.55114537 0.61733508 1.5259457
-0.45261422 0.61353755 1.5192589
-0.35412797 0.61050314 1.5141923
-0.25648141 0.60646212 1.5088263
-0.16596316 0.60310292 1.5035288
-0.10239572 -0.60576701 1.601
-0.049733203 -0.62374061 1.6142241
0.044726141 -0.62108755 1.6104654
0.14490673 -0.61173797 1.6036795
0.24012081 -0.60626584 1.6024085
0.31991529 -0.6021331 1.6010008
-0.11287059 -0.53665805 1.6158578
-0.050814331 -0.55027974 1.6576012
0.050097879 -0.5506438 1.6498872
0.15023676 -0.55102676 1.6414919
0.25007245 -0.55055529 1.6324575
0.34920564 -0.54851091 1.6257206
0.44838288 -0.54224974 1.6209927
0.54774809 -0.53468543 1.6170614
0.64769632 -0.52763391 1.613741
0.73868138 -0.51647377 1.6124147
0.82164288 -0.50629699 1.6071543
-0.13102335 -0.44570515 1.6384342
-0.064432681 -0.48368335 1.6899831
0.056039333 -0.48885927 1.686606
0.15309171 -0.47959778 1.6847105
0.25303563 -0.47151196 1.6794621
0.35164067 -0.46141267 1.6755755
0.45123374 -0.4566046 1.6699713
0.54981655 -0.45091552 1.6662202
0.64936328 -0.45115888 1.6580926
0.74999726 -0.45130673 1.6506875
0.83380169 -0.44748297 1.6442719
-0.20442204 -0.30881074 1.6024586
-0.1595813 -0.35116234 1.6455106
0.56278247 -0.39358345 1.6959993
0.64929521 -0.39035225 1.6931592
0.75175738 -0.38403898 1.6902759
0.84594166 -0.37924355 1.6848487
-0.21507387 -0.23916042 1.6192564
-0.18052433 -0.25673071 1.6658033
-0.033023439 -0.27075046 1.6271094
0.042085987 -0.27492392 1.6206245
0.12268233 -0.27256453 1.6012996
-0.23461242 -0.14877392 1.6330643
-0.18895982 -0.18248886 1.6826121
0.37556449 -0.12548093 1.6079025
-0.30321559 -0.0089563513 1.6017001
-0.25978193 -0.04976033 1.6477269
0.37207702 -0.096507996 1.6182222
-0.31183985 0.029224118 1.6089342
-0.28455696 0.014235957 1.6404588
-0.14951876 0.16785881 1.6156278
-0.087392561 0.19188361 1.6037196
-0.13607866 0.24572344 1.6619328
-0.05503292 0.25561997 1.6288191
0.024214908 0.28104717 1.607275
-0.11418334 0.30996943 1.6935583
-0.041163281 0.3369866 1.6768346
0.049284112 0.35065958 1.6414623
0.13676175 0.37205926 1.6145902
0.2532067 0.36065558 1.6133616
0.30135953 0.32667795 1.6390001
0.68980324 0.39771736 1.6960001
0.74396533 0.39788827 1.6959999
0.86285472 0.39350295 1.6863149
0.90401143 0.3833999 1.692625
-0.50339866 0.49766955 1.6960001
-0.45352092 0.49593037 1.6941996
-0.34211969 0.49548745 1.6898853
-0.24429004 0.49210316 1.6831592
-0.14693125 0.48898572 1.6792672
-0.048125677 0.48438656 1.6747583
0.053815238 0.46820176 1.6691368
0.15069857 0.45785084 1.6546602
0.24628201 0.4648672 1.6328374
0.35108745 0.46630579 1.6472009
0.45043224 0.45799759 1.6461624
0.55015475 0.44915849 1.6471211
0.64986676 0.44253361 1.6452712
0.7484116 0.43594435 1.6449715
0.84006059 0.42818457 1.6436368
-0.91623455 0.55332893 1.6661459
-0.85140985 0.56407005 1.6486044
-0.75009876 0.55475348 1.647117
-0.65166765 0.54640102 1.6469648
-0.55084616 0.53813517 1.6448462
-0.45045686 0.5323804 1.6450235
-0.35085234 0.52914047 1.638957
-0.25108925 0.52680099 1.6330113
-0.15114042 0.52235639 1.6276935
-0.051859222 0.51670277 1.6228167
0.046293408 0.51274526 1.6166917
0.14440449 0.50807643 1.6099783
0.2407328 0.50495261 1.6033545
0.31211424 0.50124419 1.601
-0.10346477 -0.40934023 1.7054212
-0.047341753 -0.4411954 1.7252846
0.047056492 -0.44064915 1.7214265
0.14817789 -0.43032029 1.7169604
0.24485339 -0.42220423 1.7113783
0.34417427 -0.41262138 1.7053019
0.44398329 -0.40729588 1.7039995
0.50214171 -0.40048507 1.7040001
-0.11657373 -0.33917561 1.7227329
-0.054936022 -0.36125061 1.769969
0.051331051 -0.36459291 1.7663188
0.15068415 -0.35704994 1.7602996
0.25089532 -0.35136008 1.7560883
0.35040125 -0.35145161 1.7455992
0.44967535 -0.35005435 1.7340621
0.54828912 -0.34606951 1.7281363
0.64975053 -0.34035441 1.7223256
0.74931073 -0.33484823 1.7199978
0.84980577 -0.33026606 1.7177119
0.90443063 -0.31765515 1.7149094
-0.13744991 -0.25934923 1.7321132
-0.092631616 -0.2895107 1.7856287
0.27956691 -0.2963095 1.7860513
0.35756943 -0.29069501 1.7820138
0.4554823 -0.27752566 1.7801734
0.55324703 -0.26620531 1.7754884
0.65124786 -0.25894064 1.7708092
0.75033003 -0.25205904 1.7673317
0.85039067 -0.25125024 1.7645171
0.91538846 -0.24376591 1.7611063
-0.16830726 -0.1945484 1.7058948
0.76357245 -0.19744821 1.7939998
0.84158641 -0.19637659 1.7939996
0.93171358 -0.19248995 1.7925446
-0.23096395 -0.024919143 1.7047499
-0.16322927 0.29027453 1.7040005
-0.13620314 0.35022405 1.7335631
-0.068742566 0.37463143 1.7155002
0.36363384 0.38253129 1.7712348
0.45288208 0.38058436 1.7643027
0.55083972 0.37563187 1.7557451
0.65114909 0.3709285 1.7496129
0.75254035 0.36651009 1.7483982
0.85126776 0.36138627 1.7491785
0.92037326 0.34575197 1.7552521
-0.91448629 0.48901621 1.7702886
-0.84914619 0.48028019 1.7736999
-0.7477029 0.47725767 1.764643
-0.64773804 0.47394115 1.7551936
-0.54827309 0.47116986 1.7489678
-0.44817138 0.46407765 1.7464826
-0.34871328 0.45896029 1.7438153
-0.25054276 0.45264027 1.7458241
-0.14940189 0.44330609 1.7467293
-0.053056199 0.43988562 1.7359093
0.041560993 0.44264367 1.7186517
0.10233898 0.44431373 1.7040004
0.29663399 0.43228388 1.7096667
0.34895894 0.41702253 1.7253323
0.44577056 0.41170615 1.7168006
0.54456568 0.40593281 1.7088037
0.6336875 0.40443632 1.7044827
0.75522399 0.40290406 1.7040001
-0.9264586 0.51880133 1.7266027
-0.85367393 0.51626492 1.7228062
-0.75387752 0.51159626 1.7164044
-0.65447509 0.50654614 1.7092612
-0.56395864 0.502267 1.7044163
-0.4027746 0.50001705 1.7040001
-0.39983177 0.50001705 1.7040001
-0.062045477 -0.32546955 1.8032763
0.075534329 -0.32605752 1.8030002
0.12185197 -0.31788379 1.8030001
0.46671212 -0.22926097 1.8108095
0.54421467 -0.21786034 1.8091779
0.64314389 -0.20963459 1.8046939
0.71312624 -0.20717122 1.8030006
0.80688596 -0.20267355 1.8030001
0.47787923 -0.18315548 1.8366511
0.5499143 -0.18217647 1.825055
0.65122914 -0.18194701 1.8180225
0.74775594 -0.15027583 1.8473125
0.84915674 -0.14967613 1.8420193
0.93512464 -0.14360625 1.8435671
0.75808394 -0.086366788 1.8891
0.8472209 -0.07972341 1.8881646
0.9502058 -0.078952283 1.8838522
1.0008165 -0.055867739 1.8930001
0.39130443 0.29786095 1.8882858
0.46054274 0.29369345 1.8884842
0.55368358 0.28885424 1.8835819
0.65210676 0.28688535 1.8775674
0.75143707 0.28179201 1.870504
0.85077864 0.27787301 1.86698
0.94784135 0.27514806 1.8665746
1.0022612 0.25374705 1.8908001
-0.80313987 0.39724636 1.893
-0.74153984 0.39337504 1.8885714
-0.64619315 0.39093328 1.8873317
-0.54889351 0.38794592 1.873702
-0.44814318 0.37834436 1.8716445
-0.34697574 0.37969968 1.8692298
-0.24793819 0.37731919 1.8571923
-0.18694712 0.38388017 1.8295935
0.37767366 0.3379879 1.8352824
0.44887593 0.3319777 1.8417112
0.5496493 0.32556605 1.8336897
0.64753026 0.3198508 1.8246535
0.74705952 0.31712729 1.820727
0.84902936 0.31451505 1.8177317
0.93450421 0.31048951 1.8135232
-0.82684427 0.43698159 1.8361442
-0.7512331 0.42807406 1.8403416
-0.65055054 0.42386937 1.8341404
-0.54948682 0.42137799 1.8215132
-0.45119441 0.41664872 1.8223761
-0.35213491 0.41294414 1.8209586
-0.25293911 0.40995827 1.8107297
-0.18329783 0.40883785 1.8096844
0.69753551 -0.17004159 1.9085001
0.70801079 -0.13307938 1.9498986
0.74182796 -0.041868765 1.9302629
0.85107511 -0.030010408 1.9194196
0.94822103 -0.030548487 1.9157426
1.0065993 -0.018553201 1.9203877
0.75521415 0.042699121 1.9691138
0.85064203 0.050764151 1.9680444
0.94982123 0.049670387 1.9649539
1.02009 0.058898386 1.9645628
0.7774123 0.19737269 1.9920005
0.85617381 0.18240301 1.9891454
0.9559865 0.19178477 1.9868296
1.0264673 0.17502905 1.985737
-0.47238353 0.29788992 1.9912146
-0.34786937 0.29545024 1.9894729
-0.24584748 0.29233047 1.9870583
0.39743301 0.29552224 1.9103333
0.45509368 0.26288429 1.9429141
0.5488953 0.24919692 1.9472265
0.65151328 0.24293445 1.9468428
0.74915987 0.23373061 1.9479574
0.84956819 0.22841546 1.9425869
0.95012951 0.22709166 1.9384573
1.0190834 0.21953759 1.9422255
-0.80508751 0.39217922 1.90575
-0.73687488 0.3604784 1.9352671
-0.65228319 0.3506704 1.9487358
-0.55031598 0.34350225 1.9479394
-0.44895926 0.33119759 1.9483062
-0.35097417 0.33140856 1.945926
-0.25032246 0.32818329 1.9396864
-0.19790679 0.35238019 1.92225
0.71307492 -0.14157653 2.0477841
-0.28500912 -0.00031111165 2.0240002
0.71517324 -0.050731268 2.045191
-0.31661332 0.0579562 2.0610168
-0.28742033 0.043949544 2.0452089
0.72410452 0.059929319 2.0351958
0.97990036 0.096597709 2.0039999
-0.31474453 0.10555566 2.0900002
-0.29820126 0.10345019 2.0900002
0.47826669 0.18169387 2.0687582
0.55259395 0.17872125 2.0582306
0.65167183 0.17144817 2.0502408
0.75137448 0.15057762 2.0392509
0.84906471 0.14995208 2.0318573
0.9501484 0.14572766 2.0287423
1.0387821 0.14418432 2.0312381
-0.6368472 0.27608234 2.038096
-0.55436903 0.26565993 2.0479805
-0.45007074 0.26798522 2.0485184
-0.34819621 0.26104727 2.0438199
-0.26348764 0.26224187 2.0341134
0.46827051 0.21589696 2.0231106
0.54528612 0.2100115 2.0122249
0.63879067 0.2075918 2.008363
0.73002207 0.20042524 2.0039999
-0.70496249 0.30882439 2.0085001
-0.65143192 0.30879858 2.0150821
-0.55406421 0.30573672 2.009547
-0.43469948 0.30145785 2.0051429
0.69964945 -0.18899079 2.1420002
0.72011465 -0.14347979 2.1505923
0.72206551 -0.049968325 2.1509142
-0.28993043 0.097691372 2.102
0.49327037 0.093264386 2.188385
0.55171388 0.090518795 2.1896319
0.65225309 0.08436963 2.183001
0.72145915 0.058356367 2.153754
-0.53713733 0.18511964 2.1817758
-0.45109314 0.18506938 2.1732438
-0.33914897 0.1669156 2.1402216
-0.28181261 0.15974177 2.1400018
0.48304656 0.13502777 2.1285901
0.55074728 0.12913477 2.1354487
0.64896309 0.12138988 2.129313
0.71436083 0.11924553 2.1163583
-0.54559869 0.22140898 2.1353235
-0.44845366 0.21906833 2.1237226
-0.35371312 0.21548809 2.1210113
-0.27101642 0.21532385 2.1195228
0.72343844 -0.2007255 2.2750003
0.72591943 -0.14929596 2.2493324
0.72683573 -0.050963212 2.2452013
-0.43412179 0.098303966 2.2850001
-0.38620353 0.093981899 2.2850001
0.49690104 0.083665147 2.2110002
0.55250198 0.056011569 2.2460015
0.64948535 0.044028204 2.2462373
0.71867502 0.033097737 2.2413378
-0.51778483 0.15450679 2.2265904
-0.44892117 0.13780856 2.2465506
-0.381908 0.13681184 2.2378352
0.7416144 -0.20572722 2.3725002
0.73499811 -0.15151614 2.3459857
0.5697729 -0.020635698 2.3660479
0.65055203 -0.029532617 2.352499
0.72451442 -0.043421376 2.3394868
-0.4233987 0.080051295 2.3148301
-0.39282864 0.075726412 2.3348002
0.55955666 0.015366293 2.3112726
0.64258152 0.0097004063 2.3013082
0.71312523 0.0048102099 2.3
-0.45987567 0.105088 2.3
0.74436837 -0.20234293 2.4196668
0.59543413 -0.10476894 2.4840002
0.6520735 -0.11136494 2.4780004
0.73670053 -0.13711149 2.4574292
0.58398497 -0.070340984 2.4332137
0.64470696 -0.079964019 2.4310141
0.72200066 -0.08192981 2.4283979
0.67559397 -0.20222569 2.5970001
0.74364686 -0.20342949 2.5906191
0.59694034 -0.11970576 2.523
0.65490919 -0.15470518 2.5406909
0.72957385 -0.16708998 2.5371265
0.6708653 -0.21704727 2.6284704
0.73161298 -0.22003913 2.6310215
0.6423806 -0.19263479 2.6170003
