# .PCD v0.7 - Point Cloud Data file format
VERSION 0.7
FIELDS x y z
SIZE 4 4 4
TYPE F F F
COUNT 1 1 1
WIDTH 597
HEIGHT 1
VIEWPOINT 0 0 0 1 0 0 0
POINTS 597
DATA ascii
-0.55340499 -0.41794875 1.0722768
-0.57326329 -0.35534766 1.0741296
-0.60495704 -0.24163382 1.0879085
-0.59146726 -0.27809381 1.0865984
-0.61378473 -0.19548564 1.0962501
-0.51518971 -0.42282191 1.1207203
-0.47506955 -0.4399012 1.1694646
-0.5314334 -0.34615207 1.1396458
-0.48928827 -0.37422621 1.1848161
-0.60431647 -0.21268617 1.1069871
-0.56122226 -0.25174126 1.1490458
-0.6127674 -0.14455992 1.1337034
-0.58212084 -0.16029528 1.1706456
-0.62502587 -0.052513532 1.1685108
-0.59528077 -0.086057171 1.1920081
-0.64850652 0.039119951 1.1862828
-0.66904682 0.10949381 1.1970003
-0.40263915 -0.50170279 1.2410001
-0.3723726 -0.50946593 1.2770567
-0.4277209 -0.44240049 1.2361374
-0.3865276 -0.46599528 1.2801732
-0.50339216 -0.31031001 1.2052413
-0.45425764 -0.35082987 1.2489814
-0.51659024 -0.24028131 1.2218454
-0.47748262 -0.25738996 1.2659436
-0.53695893 -0.14693865 1.2433416
-0.49229136 -0.17903784 1.2874444
-0.60903603 -0.020724881 1.2096038
-0.56688464 -0.053539827 1.2518677
-0.62439263 0.05776488 1.2309564
-0.5849272 0.037864398 1.2748519
-0.64565057 0.14759746 1.2503606
-0.59770364 0.10564066 1.2933463
-0.70204949 0.28983676 1.2532499
-0.67291659 0.24018654 1.2654563
-0.70138741 0.30191749 1.2540001
-0.6974892 0.30170092 1.2540001
-0.32553175 -0.51895821 1.3353246
-0.28351054 -0.5341152 1.3832563
-0.34432653 -0.44822797 1.3463773
-0.2940152 -0.48608682 1.394231
-0.41262472 -0.33230448 1.3160348
-0.37116966 -0.35617992 1.3599814
-0.43021727 -0.24520572 1.3390118
-0.38839757 -0.26952761 1.3839698
-0.50466788 -0.11326202 1.3098059
-0.45904225 -0.15220125 1.3506051
-0.0099175507 -0.10836902 1.3980001
0.053533226 -0.11519284 1.3862549
0.15093358 -0.11856782 1.3752068
0.23287641 -0.11803327 1.3796194
-0.52005118 -0.040748257 1.3264095
-0.48034722 -0.058762573 1.3722838
-0.0096281627 -0.086601026 1.3980011
0.058164041 -0.059006866 1.375918
0.14998835 -0.048009552 1.3351059
0.23030499 -0.052488282 1.3444808
-0.54191202 0.052558269 1.3459036
-0.4936645 0.016562961 1.3928761
0.090684928 0.0089805368 1.3951526
0.15952311 0.039624937 1.3739384
0.21947926 0.046485357 1.3653427
-0.61084181 0.17131804 1.3142477
-0.56867343 0.1445265 1.3569925
0.1874335 0.10118797 1.3980001
0.21500209 0.10704953 1.3956426
-0.62799764 0.23080073 1.3222238
-0.58742654 0.21135661 1.3670118
-0.16794424 -0.60396802 1.4946002
0.71985054 -0.60478526 1.4957936
-0.23509803 -0.53773636 1.4434029
-0.18793902 -0.57150924 1.4854343
0.74499053 -0.54272217 1.4611261
-0.30755839 -0.41885123 1.4131802
-0.26354957 -0.45314318 1.4528311
0.76295096 -0.49238107 1.48648
-0.32371017 -0.342733 1.4328963
-0.28309363 -0.36258447 1.4758245
-0.40298858 -0.20429607 1.4040002
-0.34988925 -0.24975677 1.4476798
-0.29670295 -0.29283291 1.4941199
0.082372911 -0.20271961 1.4959999
0.15121132 -0.20407458 1.4946572
0.25240925 -0.20419262 1.4931335
0.30294779 -0.20336552 1.4960002
-0.41514361 -0.13725419 1.4198605
-0.3754918 -0.15735561 1.4644591
-0.20199017 -0.11804082 1.4830002
-0.1434598 -0.13330027 1.4664783
-0.051624667 -0.14468107 1.4455317
0.048076823 -0.16325411 1.4470886
0.14896396 -0.16776784 1.4434592
0.25470385 -0.16129549 1.4423974
0.31536785 -0.15010929 1.4756051
-0.43452027 -0.045950048 1.4431411
-0.39146623 -0.078122653 1.4860265
-0.1329228 -0.071164183 1.4786998
-0.05133424 -0.049005486 1.4445506
0.025205802 -0.021231025 1.4170196
0.28199911 -0.044673018 1.4347895
0.30984321 -0.06846527 1.4809515
-0.50763798 0.079315007 1.4122059
-0.46385625 0.047378369 1.452486
-0.028017808 0.028444173 1.4818133
0.049790483 0.05009035 1.4479113
0.12649524 0.075695321 1.4167653
0.26345646 0.052123033 1.4512298
-0.52258492 0.14631212 1.4226909
-0.48108348 0.12159444 1.46715
0.072416395 0.12574716 1.4834788
0.15122703 0.14818369 1.4503685
0.22843911 0.14982881 1.4445072
-0.56099921 0.20103559 1.404
0.17375897 0.22077861 1.4852517
0.21985839 0.23168063 1.4801166
-0.12022441 0.59830403 1.4960002
-0.03794001 0.59646875 1.4942254
0.053294901 0.59452999 1.4901042
0.15304509 0.58991534 1.4823153
0.25173748 0.58558148 1.476928
0.35088226 0.58150697 1.4713459
0.4519738 0.5782609 1.4656528
0.55109727 0.57342565 1.4612368
0.65064555 0.5671078 1.4575768
0.74405384 0.55584991 1.4557467
0.80339152 0.52540225 1.490389
-0.52112693 0.62908512 1.4959996
-0.4402034 0.62424177 1.4935347
-0.34884328 0.62031025 1.4907796
-0.24639519 0.61578774 1.4888234
-0.15016317 0.61166817 1.4846308
-0.0518995 0.60947859 1.4782618
0.048618615 0.60735059 1.4682916
0.14860851 0.60607648 1.4577972
0.24817245 0.60477316 1.4506335
0.3486912 0.60316557 1.4408861
0.43579349 0.60194814 1.4347891
-0.1251923 -0.61367422 1.5475549
-0.090695702 -0.62302816 1.5853795
0.093903959 -0.64263129 1.5930002
0.16321471 -0.63288862 1.5888455
0.25161099 -0.62000906 1.5819439
0.34646741 -0.6159488 1.5660969
0.44700718 -0.61382616 1.5491179
0.54964817 -0.61090016 1.5329971
0.64609069 -0.60713631 1.5156423
0.71050113 -0.60391659 1.5020003
-0.2038579 -0.50549161 1.5050437
-0.15069218 -0.55020171 1.5473471
-0.097849086 -0.59283602 1.5930002
0.27236509 -0.59367591 1.5912508
0.35937116 -0.58159059 1.585458
0.45357829 -0.56760281 1.5755521
0.55282247 -0.5541954 1.5660827
0.6514082 -0.55231541 1.5493397
0.72428179 -0.54735285 1.532578
-0.21715069 -0.44005075 1.5225298
-0.17646645 -0.45963195 1.5649501
0.58334738 -0.49474251 1.5929997
0.65850562 -0.48489305 1.5880078
0.75584501 -0.47077617 1.5720608
0.81723452 -0.44888088 1.5742702
-0.24006468 -0.34758189 1.5437356
-0.19393577 -0.38002521 1.5862274
0.84220856 -0.39846945 1.5930001
-0.31064612 -0.22832839 1.5144625
-0.27081102 -0.25550368 1.5527626
-0.11538292 -0.2060145 1.5350199
-0.045406103 -0.22392362 1.5510303
0.0500848 -0.23119539 1.5470809
0.15033433 -0.23857571 1.5477405
0.24465227 -0.23193157 1.5336162
0.33687305 -0.21718296 1.5306957
-0.32805988 -0.14410242 1.5361097
-0.28829259 -0.16813801 1.5763206
-0.12391389 -0.18902732 1.5147072
-0.056390375 -0.19513726 1.50725
0.017349852 -0.1991013 1.5020003
0.35961384 -0.15615082 1.5465953
-0.40518278 -0.0094847297 1.5061948
-0.35798863 -0.050448798 1.5468831
-0.20130388 -0.014967289 1.5517501
-0.1608448 -0.032625914 1.5219198
-0.094071843 -0.0039777681 1.5023892
0.33952558 -0.060089868 1.5529932
-0.41905165 0.058389917 1.5217806
-0.37881303 0.034026284 1.5643046
-0.20161514 0.0051502972 1.5593334
-0.1439954 0.044527598 1.562696
-0.06183872 0.061546821 1.5237492
0.0049448381 0.094079085 1.5035912
0.28978693 0.067487501 1.5192714
0.31574261 0.044279743 1.5675083
-0.44614929 0.11214619 1.5100327
-0.11406891 0.11168776 1.5870007
-0.042268507 0.14169644 1.5633816
0.039163254 0.16076677 1.5263306
0.10780993 0.19267991 1.5035806
0.27985457 0.15619028 1.5435556
0.30472401 0.13260315 1.5839541
-0.012806417 0.21027216 1.5895714
0.059640918 0.23899354 1.5661833
0.14228964 0.25854602 1.5291803
0.24538815 0.25970513 1.5343696
0.092715032 0.30566034 1.5903751
0.16132095 0.33629012 1.5697472
0.22704867 0.34789208 1.5579503
0.19638316 0.4021064 1.5930001
0.22731653 0.41112673 1.5874629
0.3652744 0.49748757 1.5930001
0.46728465 0.49481878 1.5885984
0.55314672 0.49212998 1.5817467
0.65270501 0.48953587 1.5812051
0.75242388 0.48422164 1.5718681
0.82413232 0.47860974 1.5671465
-0.84006035 0.59351379 1.5852093
-0.74601227 0.58955103 1.5797909
-0.64915657 0.58686095 1.5758127
-0.54877162 0.58354598 1.5694358
-0.44893679 0.58100247 1.5645553
-0.34886181 0.57752085 1.5598421
-0.24889371 0.57439941 1.552424
-0.14926112 0.57092786 1.5475101
-0.050917611 0.56415504 1.5458903
0.049752478 0.55769336 1.5455605
0.14955805 0.54962653 1.5476439
0.24997394 0.54086798 1.5463275
0.34987569 0.532583 1.5461271
0.4478378 0.52852714 1.5415168
0.54939842 0.52561152 1.5353842
0.65023577 0.52114946 1.533016
0.74735039 0.51544791 1.5245237
0.80975801 0.51008457 1.5189055
-0.83358169 0.61809903 1.5465807
-0.75105023 0.61994511 1.5388657
-0.65073246 0.61813653 1.531067
-0.55215007 0.61605793 1.5227749
-0.45346582 0.61201513 1.5171623
-0.3516238 0.60825968 1.5121562
-0.2607463 0.60510814 1.5072123
-0.16544019 0.60241157 1.502636
-0.042706765 -0.62624401 1.6264441
0.0474484 -0.62511104 1.6195122
0.14066137 -0.61520237 1.6052027
0.21491404 -0.60326535 1.602167
-0.11126152 -0.52564281 1.611527
-0.053295068 -0.55442023 1.6585244
0.050905809 -0.55134678 1.6633841
0.15018561 -0.55105829 1.6435941
0.24861746 -0.54759288 1.6276345
0.34461573 -0.53422219 1.6166496
0.44272143 -0.51919448 1.6081392
0.52242851 -0.50591356 1.6030694
-0.13073891 -0.4431197 1.634204
-0.08511924 -0.47003049 1.6787755
0.079658508 -0.49200594 1.6950901
0.15635832 -0.48135903 1.687371
0.25536701 -0.46510205 1.6767908
0.3511357 -0.45175272 1.6634825
0.45045108 -0.45123896 1.6459235
0.54902464 -0.44827151 1.6290864
0.64656764 -0.43711913 1.6196762
0.7410543 -0.4225834 1.6115599
0.81908739 -0.41213176 1.6053592
-0.20719595 -0.31632257 1.6068941
-0.15935564 -0.35276774 1.6478362
-0.009716589 -0.30182567 1.6710001
0.028637236 -0.30174932 1.6598697
0.38036957 -0.39639696 1.6939995
0.45835966 -0.37848684 1.6875734
0.55643886 -0.36600518 1.675908
0.65022987 -0.3513833 1.6679574
0.7502594 -0.35089332 1.6523077
0.83313245 -0.3465476 1.6397908
-0.2235982 -0.24200389 1.6246881
-0.18108384 -0.25919667 1.6737084
-0.031892702 -0.27147019 1.6214387
0.045386352 -0.27908409 1.6253488
0.1261576 -0.27449867 1.6044586
0.68226445 -0.2936793 1.6949084
0.75765306 -0.28347468 1.6890457
0.85074097 -0.26911902 1.6821212
0.90252197 -0.2301873 1.6960001
-0.30285355 -0.104392 1.601
-0.25065717 -0.1490861 1.6378455
-0.19101907 -0.18894872 1.6858206
0.38890028 -0.12629536 1.6035523
-0.3146497 -0.036286965 1.615088
-0.27270997 -0.057964593 1.6602795
0.37584731 -0.041015778 1.6417766
0.40053627 -0.039403252 1.6790001
-0.33236614 0.021172401 1.6219692
-0.29477766 0.0067559197 1.6586002
-0.17714995 0.084407195 1.6062741
0.35192102 0.051630083 1.6435791
-0.14856663 0.15355158 1.6369131
-0.077584989 0.17861946 1.6106347
0.29758582 0.19144864 1.602
0.32984543 0.15050405 1.646163
-0.13399059 0.23096062 1.679585
-0.051352937 0.25169525 1.6432253
0.026062548 0.2760424 1.6119602
0.28945816 0.26219893 1.6153551
0.31583855 0.24120517 1.6612886
-0.029335411 0.32687202 1.680799
0.050807245 0.34957042 1.6459314
0.1302993 0.37329733 1.6140494
0.27826321 0.34534693 1.6307167
0.30819184 0.31938565 1.6791396
0.79414892 0.39808348 1.6960001
0.86319083 0.39483106 1.690449
0.9044944 0.38494256 1.6934288
-0.52478039 0.49708372 1.6959997
-0.44224393 0.49564615 1.6909435
-0.3466579 0.49325183 1.6863021
-0.24512716 0.49052951 1.6817902
-0.14686683 0.48672828 1.6775377
-0.047842376 0.48327559 1.6734352
0.054901764 0.46937108 1.668762
0.15077344 0.45783508 1.6486048
0.250301 0.46974877 1.6378238
0.35145265 0.46660221 1.6478791
0.44996801 0.45943534 1.6464779
0.55025131 0.45063385 1.6474476
0.64967328 0.44375169 1.6459405
0.74871707 0.4369176 1.6469929
0.84080154 0.42947087 1.646055
-0.91591716 0.54590976 1.6659468
-0.85152763 0.55782992 1.6486157
-0.74997318 0.54839021 1.648604
-0.65079689 0.54093295 1.6472756
-0.55091363 0.5342406 1.6450897
-0.45126775 0.5317142 1.6405512
-0.351174 0.52746671 1.6370653
-0.2507382 0.52505887 1.6316874
-0.15178593 0.52115756 1.6261448
-0.051358592 0.5159905 1.6215794
0.046216402 0.51295 1.6172839
0.14496286 0.50840855 1.607998
0.24493162 0.50529861 1.6031426
0.31610215 0.50190872 1.6010004
0.40404835 0.5002073 1.6010002
-0.029096745 -0.50873476 1.7065232
0.016710689 -0.50367719 1.7042046
-0.10260723 -0.40048507 1.7040001
-0.04267538 -0.44505697 1.7336249
0.047925044 -0.44682145 1.7291719
0.14703612 -0.43304417 1.7192721
0.23736277 -0.41872728 1.7087495
0.31998134 -0.40395749 1.7040002
-0.11585828 -0.33509314 1.7175252
-0.062970787 -0.36061487 1.7653738
0.052721746 -0.36876026 1.7767256
0.15104192 -0.36067995 1.7628473
0.25200543 -0.35264382 1.7494332
0.34922007 -0.34844306 1.7309997
0.44470012 -0.33179247 1.7186649
0.53794479 -0.32103041 1.7081296
0.61771119 -0.30230078 1.7045996
-0.13717689 -0.26187542 1.7296362
-0.089415751 -0.28803286 1.7772713
0.27832064 -0.29574421 1.7801118
0.36003497 -0.28892502 1.7687093
0.46096179 -0.25963318 1.7624665
0.55018252 -0.25067779 1.7483968
0.64892429 -0.24816173 1.7306041
0.74638706 -0.23546727 1.7207464
0.84427476 -0.22282617 1.7135991
0.90089357 -0.20920196 1.7040002
-0.17794336 -0.19448787 1.7040001
0.49138755 -0.19275437 1.7939996
0.55896449 -0.183671 1.786327
0.65042454 -0.17180212 1.7752494
0.75280905 -0.16717964 1.7641428
0.85258234 -0.16073285 1.7566748
0.91542673 -0.13916323 1.7610486
-0.23671921 -0.050977062 1.7102343
0.3947289 -0.00026192403 1.7040001
0.93623 -0.093100481 1.7917074
0.38651043 0.061470568 1.7139605
0.4016391 0.020540698 1.7210001
0.37661627 0.15430818 1.7479993
-0.15072736 0.27264285 1.7171469
-0.095985889 0.29671741 1.7040004
0.3552002 0.24963735 1.7511183
-0.13490038 0.33470494 1.7516268
-0.060964249 0.36052561 1.7257235
0.0061177718 0.39225283 1.7074447
0.29761294 0.39503494 1.7210001
0.35776618 0.37735 1.7706594
0.45263776 0.38053811 1.7655611
0.55045342 0.37617061 1.7560796
0.65245658 0.37157419 1.7521967
0.75136846 0.36800975 1.7478766
0.8506006 0.36235505 1.7478325
0.91931248 0.3486954 1.7541332
-1.0027922 0.47618335 1.7914999
-0.94552982 0.48558256 1.7732354
-0.84879959 0.48064649 1.7640854
-0.7475242 0.47570452 1.7568922
-0.64902133 0.47100872 1.7532176
-0.54887033 0.46683964 1.7466238
-0.45003667 0.46217582 1.7464226
-0.3494418 0.45540228 1.746647
-0.25032246 0.44995758 1.7475277
-0.14943984 0.44219327 1.7472286
-0.053282369 0.43706739 1.7410246
0.039527003 0.43999115 1.7223532
0.10287067 0.44496909 1.7040004
0.29232213 0.42923272 1.7167228
0.34778371 0.41715792 1.7258037
0.44720164 0.41196755 1.7177491
0.54361308 0.40746304 1.7107
0.63524967 0.4045496 1.7063116
0.76522964 0.40290409 1.7040002
-0.93863875 0.51271355 1.7255043
-0.85190839 0.51188743 1.7161095
-0.7571879 0.50779527 1.7094333
-0.65603936 0.50393325 1.7064561
-0.57179469 0.5006569 1.7040001
-0.028878421 -0.34640256 1.8096828
0.015871955 -0.34953448 1.8033575
0.14831918 -0.31736481 1.8030001
0.45782995 -0.20703287 1.8030001
0.47867289 -0.1760533 1.8111752
0.54278344 -0.16099848 1.8065544
0.64476234 -0.14716691 1.8037692
0.7523827 -0.11903611 1.8245554
0.84529328 -0.11071613 1.8036321
0.90548944 -0.10355121 1.8030001
0.76249373 -0.052472778 1.8551506
0.85122377 -0.050337445 1.839893
0.93296099 -0.04387692 1.8308479
0.77284247 0.018436797 1.8870604
0.85420203 0.025093013 1.8841097
0.95107889 0.03667675 1.8771325
1.003655 0.074478 1.8911667
0.3881112 0.26549757 1.8373955
0.44788727 0.29244754 1.8891336
0.55290365 0.29048604 1.8848891
0.65204698 0.28864223 1.8798462
0.75210369 0.28420484 1.872177
0.85162115 0.27973008 1.869511
0.9476487 0.27724916 1.8662801
1.0025111 0.25825283 1.8882858
-0.91767812 0.3909862 1.8893336
-0.85745901 0.38152826 1.8721081
-0.74322098 0.39076805 1.8866527
-0.64682269 0.38757804 1.8780313
-0.54991776 0.38315111 1.8725921
-0.45027319 0.3785246 1.8719811
-0.34711128 0.37908927 1.8638337
-0.24731705 0.37401429 1.8583424
-0.16515274 0.38135082 1.8241143
0.37663877 0.34055659 1.829285
0.44915599 0.33166105 1.8419746
0.55016875 0.32630384 1.8355008
0.6468693 0.32092342 1.827168
0.74694437 0.31725061 1.8225607
0.84902364 0.31558332 1.8197377
0.93654984 0.31129262 1.8154863
-1.0096837 0.45571008 1.8273338
-0.94750732 0.44083753 1.8404924
-0.85012311 0.4314484 1.8406552
-0.7519778 0.42514622 1.8366536
-0.64961511 0.42135271 1.8277723
-0.54952687 0.41854101 1.8244691
-0.4512628 0.41501066 1.8195106
-0.35067463 0.41057724 1.8127577
-0.25333908 0.40928635 1.8110739
-0.16204859 0.40633735 1.8084406
0.7466194 -0.12389103 1.9521548
0.74337536 -0.04660482 1.9480439
0.758394 0.057489656 1.9323473
0.84883744 0.073816314 1.9154793
0.94314331 0.082254887 1.9089236
1.0097778 0.093315125 1.9054445
0.76843196 0.12441366 1.9608732
0.85078996 0.13837323 1.9561362
0.95240909 0.14396581 1.953269
1.0203184 0.15932477 1.9617271
-0.50525111 0.29899076 1.9920001
-0.46023169 0.29430243 1.9866494
-0.34659541 0.2946049 1.9901252
-0.24920145 0.29352269 1.9851235
0.46218774 0.26290399 1.9418867
0.54961854 0.25128525 1.9472114
0.65193802 0.24458864 1.9459081
0.74955159 0.23648208 1.9453573
0.84960383 0.23070006 1.9429877
0.95082498 0.22870225 1.9404544
1.0195589 0.22195713 1.9425664
-0.93715203 0.39314747 1.903
-0.82998854 0.35679168 1.9422842
-0.75187725 0.34966248 1.9480962
-0.65072554 0.34331915 1.9483272
-0.54961318 0.3365688 1.9493309
-0.44727558 0.32984224 1.9385171
-0.35098013 0.32941678 1.9437737
-0.25438926 0.32504633 1.9400715
0.76112878 -0.12795337 2.0440547
-0.30306572 -0.006960426 2.0695713
-0.28271013 -0.012048667 2.0656569
0.75640661 -0.050012741 2.0438697
-0.30254015 0.020841215 2.0791667
-0.2807931 0.023584412 2.0825031
0.75251848 0.050173696 2.0429153
-0.57550025 0.18644392 2.0821214
0.4846864 0.18187188 2.0680451
0.55268645 0.17812899 2.0595696
0.65157783 0.17142017 2.0523162
0.74737871 0.16490512 2.0365222
0.84696931 0.17749669 2.0110116
0.94039524 0.1814789 2.0049863
1.001531 0.18312067 2.0040002
-0.80230433 0.29562977 2.016
-0.73681813 0.27945003 2.0514655
-0.64844847 0.27360281 2.053673
-0.55323148 0.26023453 2.0574708
-0.44830993 0.26484799 2.0496886
-0.3470926 0.25836375 2.0448463
-0.26380232 0.25702864 2.0386751
0.47785974 0.21577971 2.0184562
0.54582572 0.21012151 2.013135
0.63708174 0.20847155 2.0093868
0.74311578 0.20196338 2.0040004
-0.81044263 0.30973205 2.0066254
-0.75394541 0.30778852 2.0132108
-0.65115023 0.30531543 2.0110803
-0.55711979 0.30393961 2.0062635
-0.41311955 0.30194557 2.0039999
0.77604711 -0.13367072 2.1532826
0.76983613 -0.050837636 2.1452098
-0.3022832 0.065823413 2.1220624
-0.28016874 0.070490472 2.1167099
0.55765527 0.091253921 2.1893644
0.65461338 0.087398775 2.1840246
0.7500608 0.069488652 2.1630907
-0.62991655 0.19018881 2.1491857
-0.54916084 0.18014315 2.1666255
-0.45062834 0.18448381 2.1712894
-0.34402221 0.17637032 2.1644459
-0.27877387 0.15537868 2.1581943
0.48992208 0.14555433 2.1159658
0.55075365 0.1286356 2.1355753
0.65009415 0.121502 2.1309206
0.7328276 0.11816294 2.121793
-0.70886672 0.24099585 2.1066666
-0.65253121 0.22516081 2.1237216
-0.53409767 0.21869846 2.1228817
-0.45049316 0.21803203 2.1194808
-0.3593629 0.21418217 2.1174726
-0.27178651 0.21105713 2.1186733
0.78507614 -0.13539901 2.2447054
0.78554583 -0.051298104 2.2486579
-0.50787824 0.095673151 2.2850001
-0.48442018 0.0978655 2.2850001
-0.33945602 0.095820837 2.2733572
0.56611961 0.054969788 2.2460566
0.648489 0.046776596 2.2457192
0.74698168 0.032854039 2.2498717
-0.60278797 0.1509577 2.2180002
-0.54177302 0.14030218 2.2347431
-0.45158705 0.13535541 2.2448816
-0.35892168 0.13010782 2.2454605
0.79614967 -0.13388205 2.3253338
0.80411488 -0.14440885 2.3676558
0.58253992 -0.020029088 2.3574576
0.65004063 -0.027945664 2.35184
0.75561047 -0.035433915 2.344945
0.80363387 -0.067657262 2.3616953
-0.51187426 0.089681022 2.3000002
-0.44140667 0.070072629 2.3336654
-0.37076315 0.066728517 2.3337097
0.57646084 0.011926494 2.3097634
0.64912134 0.0086654993 2.3023381
0.73552793 0.0047307676 2.2999995
-0.4382374 0.10353248 2.2999997
0.66065609 -0.10940921 2.4786232
0.75206345 -0.11483686 2.4622219
0.81330699 -0.12718734 2.4491668
-0.37047085 -0.002472847 2.431
0.59399366 -0.067597426 2.4250872
0.64901799 -0.078702159 2.4330647
0.74715531 -0.083256766 2.4244838
0.80769151 -0.088231303 2.4221303
-0.40383771 0.016304906 2.414
-0.37544197 0.016802894 2.4242003
0.68112546 -0.20431873 2.5970001
0.74321055 -0.20521288 2.5898304
0.83062243 -0.20529491 2.5791879
0.66472811 -0.15283109 2.5408297
0.74880958 -0.16435693 2.5465212
0.82571316 -0.17338322 2.5511711
0.68802822 -0.21553394 2.6170003
0.70490128 -0.21357547 2.6170003
0.65783882 -0.19232292 2.6210003
