# .PCD v0.7 - Point Cloud Data file format
VERSION 0.7
FIELDS x y z
SIZE 4 4 4
TYPE F F F
COUNT 1 1 1
WIDTH 598
HEIGHT 1
VIEWPOINT 0 0 0 1 0 0 0
POINTS 598
DATA ascii
-0.53590202 -0.41632661 1.0660698
-0.49958691 -0.44064569 1.097
-0.55853766 -0.35410857 1.0665587
-0.60176283 -0.21917212 1.0804001
-0.5841049 -0.26254332 1.081638
-0.60576099 -0.18548417 1.0913706
-0.59759402 -0.19687761 1.0952308
-0.50485295 -0.41222256 1.1065801
-0.459564 -0.43588451 1.1564027
-0.52068084 -0.34131724 1.1256652
-0.48045507 -0.36119249 1.1706693
-0.54535401 -0.24928525 1.145931
-0.49570361 -0.28784135 1.1929234
-0.61017859 -0.13476108 1.1216305
-0.57342851 -0.15769941 1.1592898
-0.61936754 -0.047235973 1.1587629
-0.5897342 -0.073787928 1.1847965
-0.63971704 0.04165874 1.1819415
-0.66235048 0.11837732 1.1934963
-0.33926314 -0.50923902 1.2774307
-0.41458824 -0.43282074 1.2194374
-0.37175816 -0.45543003 1.2621118
-0.43524331 -0.34500122 1.240433
-0.38903835 -0.37441027 1.2848704
-0.51020086 -0.22178634 1.2114072
-0.46416515 -0.25397724 1.2525713
-0.5266279 -0.14283367 1.2319432
-0.48351857 -0.16371265 1.2770082
-0.60317719 -0.0073904074 1.2045747
-0.55333966 -0.05003161 1.2481649
-0.49935901 -0.097447954 1.2945001
0.23488219 -0.046743467 1.2962301
-0.6181705 0.061792865 1.2222804
-0.57708728 0.041975029 1.2660899
-0.63846964 0.15130553 1.2458299
-0.59234756 0.11773989 1.2867355
-0.66469741 0.24025136 1.2624766
-0.69560546 0.30121791 1.2436666
-0.30979273 -0.51320505 1.3115731
-0.26172572 -0.52734351 1.3644061
-0.32482952 -0.44224429 1.3299655
-0.28037781 -0.46178392 1.3765055
-0.40399638 -0.3056753 1.3045861
-0.3511574 -0.35024518 1.3473294
-0.29542866 -0.39068812 1.3951361
-0.41791481 -0.23890147 1.3232023
-0.37562001 -0.258697 1.3671886
-0.44022 -0.14690377 1.3450794
-0.39198679 -0.17793742 1.3904248
0.061649911 -0.11911082 1.3881721
0.15218495 -0.12466373 1.3712972
0.24840942 -0.12703383 1.3679525
0.30952299 -0.12315847 1.389117
-0.51223582 -0.030770008 1.3147618
-0.46866593 -0.055552244 1.3583157
0.072567217 -0.072401389 1.3830117
0.15182532 -0.05000475 1.3498725
0.24461223 -0.049667891 1.3272183
0.3060163 -0.074870326 1.386838
-0.53030753 0.056383613 1.3381487
-0.48596981 0.031799071 1.3836842
0.17137729 0.028696604 1.3820714
0.23761767 0.046244975 1.3664993
-0.60663211 0.18322451 1.3088721
-0.55689901 0.14705622 1.3520169
-0.49945009 0.10239515 1.3980001
0.24971941 0.10686074 1.3952998
-0.61799461 0.22881044 1.317643
-0.58295959 0.21157898 1.3528301
0.74327141 0.57654744 1.3979998
-0.11983643 -0.60379589 1.4919503
0.68381208 -0.60483682 1.4954871
0.70946223 -0.6029709 1.4891582
-0.21544057 -0.52967459 1.4195406
-0.16711242 -0.5513621 1.4668136
0.68656629 -0.59750313 1.4959997
0.75217688 -0.58046484 1.4878204
-0.23558873 -0.44579017 1.4420135
-0.18711933 -0.47603491 1.4853253
-0.31103021 -0.32540643 1.4152086
-0.26544628 -0.35554248 1.454713
-0.32912603 -0.24414095 1.4367787
-0.28478196 -0.26821309 1.4798667
-0.010930286 -0.2022205 1.4960002
0.052494537 -0.2061675 1.4926877
0.15250365 -0.20971073 1.4857252
0.25141138 -0.21239848 1.4837033
0.33519289 -0.21208927 1.4853778
-0.40570933 -0.11244547 1.4092102
-0.357171 -0.15263453 1.4526801
-0.29935402 -0.19787537 1.4960001
-0.12321787 -0.13585739 1.4776649
-0.049127147 -0.14585859 1.450838
0.043122198 -0.16231816 1.4370645
0.147214 -0.17405558 1.4355491
0.25103164 -0.17715016 1.4330081
0.34270632 -0.1580293 1.4510237
-0.4213616 -0.040341944 1.4295833
-0.38063392 -0.059142489 1.4729685
-0.11067418 -0.087884583 1.4930264
-0.042012963 -0.05932923 1.4677814
0.038363852 -0.038508333 1.4277513
0.10548154 -0.0053062048 1.4066452
0.2985625 -0.00021581065 1.404
0.33132806 -0.051753461 1.4441422
-0.44633406 0.052024078 1.4473827
-0.39399168 0.0093166791 1.4928994
-0.0092422338 0.008617497 1.4930707
0.059811022 0.041652437 1.466867
0.13804676 0.062226489 1.4271615
0.27430075 0.071697168 1.4274271
0.31418481 0.048654359 1.4687203
-0.51279855 0.15370815 1.4146122
-0.47234026 0.12372994 1.4512655
0.088957064 0.10897437 1.4920818
0.15885527 0.14055924 1.4657029
0.242079 0.15077373 1.4391605
0.30549702 0.11751898 1.4917247
0.19006296 0.21097139 1.493191
0.24293697 0.22706471 1.4817874
-0.80102205 0.58356619 1.4287649
-0.79498142 0.58624315 1.4347142
-0.22731416 0.5984844 1.4949493
-0.14322467 0.59572119 1.4940486
-0.045858979 0.59247762 1.4881219
0.051896431 0.58976936 1.4835421
0.15300731 0.5856629 1.4762324
0.25237221 0.58158308 1.470579
0.35122424 0.5769791 1.4648564
0.45115775 0.57293922 1.4600841
0.55104864 0.56694567 1.4569314
0.65087134 0.56087267 1.4525601
0.74268609 0.5484466 1.4526843
0.8044371 0.51654875 1.4937085
-0.80500138 0.61545032 1.4664446
-0.79431164 0.60647082 1.4478482
-0.62069446 0.62775558 1.4954609
-0.54192513 0.62595528 1.4943851
-0.44406101 0.62072885 1.4909377
-0.3472124 0.61605781 1.4889874
-0.24823333 0.61176109 1.4841353
-0.15107672 0.60931903 1.4775764
-0.052542325 0.60765678 1.4680063
0.047850579 0.60638994 1.4596891
0.14816022 0.60428911 1.4486902
0.24727504 0.60322142 1.4411526
0.34912258 0.60171276 1.4314613
0.41065648 0.60110325 1.427
-0.10549351 -0.60662645 1.5113333
-0.060083959 -0.61671442 1.5633197
0.17792454 -0.6381532 1.5914309
0.2563135 -0.6230315 1.5841736
0.34567785 -0.61620426 1.567719
0.44629228 -0.61327863 1.5469298
0.54954642 -0.60955882 1.5271508
0.6317693 -0.60576433 1.5096617
-0.12283424 -0.54115587 1.5274894
-0.079919405 -0.56154746 1.5691431
0.27828625 -0.59700876 1.5929999
0.36157691 -0.58207756 1.5852653
0.45454422 -0.56564248 1.5738692
0.55213422 -0.55260348 1.5606501
0.65060759 -0.55161393 1.5390019
0.7434752 -0.53653282 1.5241259
0.8030659 -0.50806016 1.5232726
-0.20424934 -0.40848655 1.5059998
-0.15017524 -0.45009068 1.5463264
-0.094637558 -0.48975265 1.5894439
0.57756013 -0.49069613 1.5895
0.65781868 -0.47837532 1.5825591
0.75441301 -0.4602944 1.5706402
0.81416726 -0.44154546 1.5668068
-0.22019815 -0.33898735 1.5238302
-0.17685585 -0.35854605 1.5663629
0.83475435 -0.39241305 1.5891912
-0.30055463 -0.21034183 1.5020001
-0.24435189 -0.24761951 1.5439821
-0.19047663 -0.28463709 1.5861535
-0.037952058 -0.22614153 1.5381581
0.050864764 -0.24079224 1.5459059
0.15179226 -0.24964897 1.5450584
0.2446156 -0.25293568 1.5438166
0.34785092 -0.23717777 1.5236686
0.41467658 -0.21849705 1.5388639
-0.31516784 -0.13156101 1.5174748
-0.2723833 -0.1566183 1.5595022
-0.1359555 -0.12431648 1.5037501
-0.077036873 -0.19709349 1.5052726
0.39092359 -0.14578056 1.5184668
0.41931233 -0.15159285 1.5594367
-0.33459717 -0.045994826 1.5401057
-0.28917783 -0.073859803 1.5839752
-0.12777649 -0.044839803 1.5324928
-0.075004049 -0.02118938 1.5154684
0.3769291 -0.049997222 1.5415392
0.41117319 -0.084636219 1.582194
-0.40891257 0.07599958 1.5092548
-0.36576623 0.038097315 1.5464073
-0.12142494 0.026116822 1.5756882
-0.049652617 0.049882568 1.5463914
0.021736687 0.074474603 1.5145682
0.35382131 0.051252399 1.5554603
-0.41876698 0.10346367 1.50425
-0.024895677 0.12299842 1.5787439
0.050162628 0.14974439 1.5450943
0.12364092 0.1774123 1.5130888
0.29619241 0.18353018 1.5045717
0.32533577 0.14820386 1.5470335
0.07400395 0.22564936 1.5799187
0.15016592 0.249654 1.545585
0.24441756 0.27004859 1.5176775
0.31229851 0.24350911 1.5725493
0.17699851 0.32494101 1.579143
0.24562109 0.34603879 1.5592527
0.30208674 0.3147639 1.5906668
0.26683864 0.44098762 1.5909108
0.35481659 0.49486431 1.5876291
0.45592734 0.49123108 1.582794
0.55237055 0.48690081 1.5754253
0.65279913 0.48299855 1.5731634
0.75261134 0.47919106 1.562338
0.82158238 0.47264609 1.5598619
-0.83886415 0.59226018 1.5797471
-0.74784255 0.58777112 1.5767381
-0.64868319 0.58394808 1.5728114
-0.54869312 0.58057046 1.5652375
-0.44918966 0.57664943 1.5585741
-0.34892198 0.57380545 1.5542142
-0.24891379 0.57011509 1.5493433
-0.14934343 0.56342679 1.5473444
-0.050712846 0.55643606 1.5464114
0.050119262 0.54893535 1.5460286
0.14952783 0.54112989 1.5457311
0.24930267 0.53333342 1.5456983
0.34892511 0.5281803 1.540361
0.44739953 0.5240292 1.5344805
0.54870516 0.5206691 1.5292335
0.64921373 0.51648289 1.5251967
0.74481416 0.51118284 1.5159703
0.80699205 0.50518709 1.5074388
-0.82632077 0.61469096 1.5436361
-0.75095236 0.61858588 1.5329275
-0.65183061 0.61630374 1.5263907
-0.55303544 0.61318856 1.5177065
-0.45487431 0.60921001 1.512637
-0.3588486 0.6049546 1.5067184
-0.28660512 0.60384351 1.5052123
-0.016026426 -0.62299287 1.6151958
0.048051514 -0.62768233 1.6321956
0.14405361 -0.62160504 1.6112322
0.221661 -0.60923493 1.6034832
-0.035311166 -0.54423714 1.6359905
0.052380815 -0.5573324 1.6729565
0.15038441 -0.5504663 1.6541964
0.24991769 -0.54957062 1.6313828
0.34465244 -0.53561258 1.6186018
0.43992567 -0.51854473 1.6081114
0.51553619 -0.505714 1.6009998
-0.11196683 -0.42274106 1.611961
-0.062962309 -0.45381731 1.6525851
0.16546749 -0.48848227 1.6927216
0.25616983 -0.46956158 1.6782733
0.35163274 -0.45217061 1.6662911
0.45021874 -0.45099527 1.644713
0.54736149 -0.44632709 1.6259288
0.64497775 -0.43090183 1.6152908
0.73744249 -0.4127515 1.6059889
0.81163251 -0.40295082 1.601
-0.13026762 -0.34362009 1.6336638
-0.083851315 -0.36538574 1.6789998
0.058498602 -0.30643046 1.6452826
0.12836027 -0.30455029 1.6258801
0.38365605 -0.39459926 1.694463
0.45580745 -0.37808752 1.6877633
0.55655444 -0.36283404 1.6739169
0.64989311 -0.35080728 1.6605151
0.75018829 -0.3506746 1.6401551
0.82886755 -0.34353459 1.627316
-0.20897794 -0.21666619 1.6078036
-0.15899046 -0.25113159 1.6512752
-0.0093099261 -0.27224091 1.6012505
0.046477553 -0.28431493 1.6155438
0.13903403 -0.28931278 1.6096119
0.66946733 -0.29007241 1.6920549
0.75531268 -0.27582794 1.6839728
0.84687227 -0.25627008 1.6762486
-0.22512734 -0.14236912 1.6270978
-0.18295231 -0.15834254 1.6697655
0.43808937 -0.12940529 1.6049603
0.89139175 -0.19826119 1.6960001
-0.30504858 -0.0090084551 1.6028672
-0.25232825 -0.051357195 1.6456026
-0.19473654 -0.095871799 1.6947998
0.39555639 -0.017344246 1.6046076
0.41483167 -0.036786836 1.6253592
-0.3119173 0.019023268 1.6075902
-0.28483552 0.010947504 1.6304853
-0.12949942 0.07137116 1.6136439
-0.092754342 0.093528181 1.603883
0.38529521 0.058996942 1.6186831
0.4173176 0.043685168 1.6761973
-0.12247224 0.14667009 1.6581376
-0.058219798 0.15885758 1.6249219
0.0066288104 0.19052359 1.6041912
0.37152371 0.1516252 1.6412838
0.40579042 0.11774672 1.6877391
-0.11035677 0.20845857 1.6908684
-0.042023007 0.24119088 1.6680398
0.039580911 0.26032037 1.6263798
0.10780921 0.2916992 1.6037052
0.34686378 0.25261533 1.6445793
-0.010713434 0.30831456 1.6926469
0.058561873 0.33812895 1.6673774
0.14089015 0.35800985 1.6260515
0.23282515 0.38547063 1.6045929
0.32365346 0.33582875 1.6374635
0.59556264 0.39691186 1.6960001
0.66285968 0.39578852 1.6943022
0.75304776 0.39474437 1.6912111
0.85199773 0.39037251 1.682346
0.90407598 0.37992808 1.6934288
-0.61566085 0.49728471 1.6941998
-0.53763658 0.49501476 1.6909318
-0.44653898 0.49199337 1.6863244
-0.3482742 0.48975024 1.6809043
-0.24771541 0.48743492 1.6762691
-0.148518 0.48200181 1.672586
-0.048040267 0.47872588 1.6646932
0.051771376 0.47490785 1.6585668
0.15283 0.4611235 1.6523671
0.24540013 0.46058461 1.6275336
0.35104465 0.45776823 1.6449574
0.45067841 0.44857842 1.6477442
0.54915726 0.43965644 1.6467953
0.64824533 0.43396339 1.6440969
0.74846101 0.43087116 1.6394602
0.83799624 0.42470181 1.634341
-0.91713381 0.54174823 1.6670076
-0.85090917 0.55263412 1.6485658
-0.74982274 0.54375255 1.646727
-0.65167075 0.5349955 1.6459213
-0.55157113 0.53044647 1.6395907
-0.45126691 0.5273928 1.6359323
-0.35111585 0.52350879 1.630535
-0.25083113 0.52053952 1.6257683
-0.15177189 0.51612163 1.6214095
-0.052062251 0.51277053 1.6141574
0.043561723 0.50922847 1.6090953
0.14255658 0.50535482 1.6026244
0.21234614 0.50251126 1.6010003
-0.004513314 -0.50250274 1.7040001
0.037820753 -0.50981158 1.7061836
0.10809849 -0.50054085 1.7040001
-0.017622665 -0.43680584 1.7189059
0.04957056 -0.45117012 1.742182
0.14644945 -0.44200367 1.7240969
0.2402209 -0.42414251 1.7131639
0.32106036 -0.40470302 1.7040006
-0.041920289 -0.34763721 1.7409856
0.052001048 -0.37793869 1.7821549
0.15309544 -0.37318659 1.7671781
0.25334769 -0.36265126 1.7499485
0.35138074 -0.35197437 1.7327789
0.44599783 -0.32956207 1.7205161
0.53387022 -0.31962398 1.7076062
0.60366893 -0.30042928 1.7040001
-0.11321549 -0.25020206 1.7087926
-0.075796939 -0.28089949 1.7374383
0.39274859 -0.2967478 1.7622501
0.46567494 -0.281499 1.7485584
0.55071491 -0.25079113 1.7460651
0.64696223 -0.24433339 1.7262791
0.74569249 -0.22778133 1.7158071
0.83474374 -0.21155357 1.7078128
-0.17667024 -0.10775033 1.7063479
0.5611732 -0.18157879 1.7851707
0.65167719 -0.17464894 1.768419
0.75604308 -0.17003676 1.7516204
0.85160077 -0.15245384 1.7526789
0.91361856 -0.13225296 1.7552997
-0.20787688 -0.047641639 1.7041767
-0.18632418 -0.072239496 1.7166125
0.87891495 -0.091366522 1.7936515
0.9263283 -0.085417069 1.7892079
0.4343648 0.074302793 1.7182167
-0.13988291 0.19886871 1.7040001
0.39613044 0.18359655 1.7093335
0.42522228 0.15071288 1.7444929
-0.11916053 0.25144944 1.7266656
-0.075994417 0.27730078 1.7142193
0.38731027 0.25282148 1.7242025
0.4148832 0.22746959 1.7613215
-0.1161795 0.33651605 1.7748282
-0.047604959 0.34628695 1.7479641
0.026727658 0.37635094 1.7232324
0.37608764 0.37844107 1.7561369
0.45399871 0.37514681 1.7552072
0.5510239 0.37052298 1.7483929
0.65008152 0.36198473 1.7481562
0.75163019 0.35590631 1.746876
0.85216224 0.35022882 1.7493359
0.9183293 0.3384822 1.7525859
-1.0027921 0.46612489 1.7915002
-0.94617176 0.48069292 1.7703376
-0.84828621 0.47671419 1.7590197
-0.74766612 0.47176632 1.7510456
-0.64901239 0.46601328 1.7483746
-0.54939777 0.46001121 1.7453176
-0.44897157 0.45394033 1.7462516
-0.34896299 0.44586521 1.7490873
-0.24993998 0.44210601 1.7462611
-0.15013702 0.43430024 1.7473996
-0.052374292 0.42969325 1.7418691
0.045839269 0.4279379 1.7283077
0.11919378 0.43019062 1.7083855
0.36078995 0.41131875 1.7142472
0.43853581 0.40642619 1.7112073
0.54579353 0.40339464 1.7039995
-0.93594444 0.51081282 1.7203215
-0.85485083 0.50875205 1.7105677
-0.76185137 0.50566643 1.7069095
-0.66926306 0.50067103 1.7039999
-0.58670068 0.50001705 1.7040001
0.024242941 -0.35824934 1.8038961
0.5499264 -0.16492794 1.8040842
0.60864133 -0.15259342 1.803
0.79012775 -0.12032019 1.8386332
0.80429107 -0.10407016 1.8030001
0.79073322 -0.055772591 1.8526968
0.84819216 -0.047127411 1.8306344
0.93103421 -0.034535531 1.822734
0.79458916 0.019900978 1.8859322
0.85538697 0.033958755 1.8789896
0.94742155 0.047899887 1.8710896
1.0038129 0.089713641 1.8898571
0.99190044 0.10313532 1.8929998
1.0051754 0.10323437 1.8929999
0.46887201 0.28679857 1.8746974
0.55226725 0.28301868 1.8752217
0.65192199 0.28086138 1.869482
0.75151509 0.27506569 1.8646125
0.85174429 0.27391389 1.8601772
0.9444077 0.27162105 1.8552204
1.0064207 0.24116442 1.8929998
-0.91468102 0.3931005 1.8873881
-0.83618653 0.3714782 1.8860627
-0.74566746 0.38573197 1.8788
-0.65094221 0.38404503 1.8747159
-0.54815298 0.37804011 1.8705866
-0.44810238 0.37589261 1.8619683
-0.34856397 0.37409413 1.8571678
-0.24844213 0.3686496 1.8517175
-0.15544036 0.3674356 1.8398283
-0.080979951 0.38331166 1.8066086
0.39654538 0.34347132 1.8083076
0.45314169 0.32847062 1.8295435
0.54900879 0.31985798 1.8268024
0.64680874 0.31447849 1.8192073
0.74731767 0.31066048 1.8156819
0.84577167 0.3085534 1.8118459
0.93925744 0.30615214 1.8042494
-1.0073583 0.45290822 1.8175266
-0.94492584 0.43567452 1.8346872
-0.85007095 0.42671409 1.8361778
-0.75259918 0.42228734 1.8285735
-0.64909291 0.41715291 1.8222318
-0.55127037 0.41368181 1.8201272
-0.45518139 0.41146502 1.8130888
-0.35473505 0.40557271 1.8085163
-0.25777128 0.4053258 1.8069696
-0.18434016 0.40284505 1.8055001
0.79734546 -0.12523323 1.9123077
0.8058427 -0.12427765 1.9555788
0.79628402 -0.049672395 1.9272008
0.80550045 -0.053436387 1.9718663
0.79403681 0.05576453 1.9366856
0.83899105 0.077822752 1.9174753
0.93189484 0.092263848 1.9051785
1.015963 0.09830223 1.9030001
0.66992146 0.19707596 1.9901667
0.77024209 0.16238542 1.9745549
0.85336298 0.14705314 1.9574387
0.95012951 0.14980689 1.9491841
1.0179265 0.16634677 1.9546713
-0.78044766 0.29695615 1.9876001
-0.61980963 0.29899076 1.9920003
-0.52726126 0.29475603 1.9907773
-0.44632128 0.29108948 1.9845144
-0.347287 0.28871796 1.9805269
-0.2469711 0.28837398 1.9816335
-0.17811614 0.28413847 1.9786625
0.48281157 0.26011458 1.9215739
0.5485276 0.23792054 1.947248
0.65015543 0.2325009 1.9449352
0.74924755 0.22614767 1.9409063
0.84991378 0.22382857 1.9353465
0.94906944 0.22308502 1.9304219
1.0160867 0.21864504 1.9301982
-0.91019708 0.38107067 1.9057499
-0.8321684 0.34687704 1.9368852
-0.75222415 0.33899492 1.9505607
-0.65025151 0.33577961 1.9468161
-0.55127591 0.32950422 1.9460928
-0.44954664 0.32580698 1.935259
-0.35083905 0.32432726 1.9348996
-0.25016475 0.31924152 1.9319583
-0.17622733 0.31619996 1.9299668
0.82208431 -0.12773758 2.0518777
-0.22813143 -0.021322729 2.0759077
0.81729436 -0.046290748 2.0485594
-0.22963172 0.0068929335 2.0880742
0.79873139 0.083709948 2.0076926
0.81020397 0.04151975 2.0450659
0.56355369 0.17241172 2.0478046
0.65030837 0.16426285 2.0426679
0.74988592 0.15358138 2.0433998
0.8206805 0.15141653 2.0297716
0.92452562 0.17619883 2.0040002
-0.73155689 0.27893364 2.0336778
-0.64883453 0.26821303 2.0472369
-0.5514797 0.26273817 2.0478485
-0.45014107 0.25499412 2.0443034
-0.34842345 0.24854141 2.044801
-0.24983488 0.24319872 2.0442462
-0.18481448 0.24298584 2.0335248
0.54358774 0.20483159 2.0092936
0.61620283 0.20298329 2.0040004
-0.74346226 0.30228317 2.0053716
-0.67124647 0.30165708 2.0040004
-0.5809741 0.30079195 2.0039999
0.83417588 -0.13354316 2.1425943
0.83185512 -0.051032409 2.143611
-0.22193637 0.054333545 2.1257582
-0.1992673 0.091412045 2.1420002
0.58757508 0.08584968 2.1738627
0.65275717 0.080329858 2.1705534
0.75300634 0.075155251 2.1626267
0.82139254 0.057051547 2.1564801
-0.61919147 0.19116728 2.152101
-0.54712027 0.17408495 2.1346536
-0.45351604 0.17565422 2.161489
-0.34944382 0.17451732 2.1597409
-0.24528562 0.16038918 2.1600592
-0.19368821 0.177991 2.1293998
0.5778355 0.12031511 2.1223214
0.65037018 0.11673231 2.1196153
0.74435532 0.11153377 2.1079643
0.80796468 0.1060175 2.1081579
-0.64384103 0.22026056 2.1160934
-0.55064219 0.21523142 2.1161537
-0.45157871 0.21246034 2.1146231
-0.35979101 0.21057174 2.1115124
-0.2595323 0.20522261 2.1087728
-0.1943361 0.20296617 2.102
0.85412145 -0.14183179 2.2505071
0.6791147 -0.0027189553 2.2850001
0.75120318 -0.0042973114 2.2841911
0.84184986 -0.030615039 2.26176
-0.50537896 0.096725479 2.2850001
-0.46377105 0.096207544 2.2850003
-0.34399498 0.095247731 2.2831595
-0.27283153 0.091421761 2.2692106
0.58857334 0.058054335 2.2194726
0.64960867 0.03182514 2.2436035
0.74814367 0.026622936 2.2405431
0.82189292 0.016864995 2.23101
-0.51861364 0.13224328 2.2368793
-0.45077017 0.12558971 2.2415385
-0.34955484 0.1250785 2.2368124
-0.27817723 0.11885086 2.2362988
0.87019432 -0.14652877 2.3392231
-0.34717855 -0.0028522252 2.3970001
0.6623922 -0.033850323 2.3332067
0.75063145 -0.04788452 2.3450549
0.84085673 -0.060490146 2.3465288
-0.4323366 0.072878465 2.3169389
-0.34869123 0.052654989 2.3396416
-0.28880399 0.064360604 2.3184593
0.61620569 0.0036185766 2.3000002
0.68544739 -0.11531541 2.4651747
0.75202626 -0.1205286 2.4477229
0.8514564 -0.1295848 2.445246
0.90424204 -0.17156167 2.4780002
-0.32005385 -0.0073818448 2.4191399
-0.29605478 -0.0058278078 2.4259
0.67653149 -0.086741082 2.4237969
0.73993737 -0.091876522 2.4161868
0.82204425 -0.094669648 2.4140003
-0.31886974 0.0065772589 2.4140003
-0.2987791 0.0088007217 2.414
0.77102041 -0.21010098 2.584156
0.84723473 -0.2092956 2.5593841
0.90616542 -0.2050152 2.5210001
0.69439858 -0.14853205 2.5020001
0.75107306 -0.1679828 2.5263889
0.84974635 -0.17860144 2.5281968
0.90802711 -0.18704483 2.5155997
0.75649971 -0.22186136 2.6170001
