# .PCD v0.7 - Point Cloud Data file format
VERSION 0.7
FIELDS x y z
SIZE 4 4 4
TYPE F F F
COUNT 1 1 1
WIDTH 608
HEIGHT 1
VIEWPOINT 0 0 0 1 0 0 0
POINTS 608
DATA ascii
-0.53744954 -0.41677058 1.0675619
-0.49958691 -0.44064569 1.097
-0.5612241 -0.35488671 1.0688958
-0.60387427 -0.22694078 1.0867008
-0.58600491 -0.26979086 1.0839254
-0.61117381 -0.19158182 1.0950655
-0.50560248 -0.41140723 1.1065676
-0.45690393 -0.43563631 1.1565492
-0.52272344 -0.34131891 1.1258672
-0.47918186 -0.36080435 1.1713686
-0.60203964 -0.20521136 1.1027406
-0.54840904 -0.24954444 1.1465132
-0.49544588 -0.28685424 1.1934073
-0.61121094 -0.142004 1.1268114
-0.57517403 -0.15933672 1.1651944
-0.62303764 -0.050226383 1.1663897
-0.59275925 -0.077617675 1.1899847
-0.64759839 0.037105609 1.1865121
-0.66802961 0.10288196 1.1969999
-0.32924828 -0.50846332 1.2739447
-0.41249728 -0.4293125 1.2165314
-0.36613467 -0.45444274 1.2585887
-0.43338156 -0.34414324 1.2372345
-0.38578445 -0.36721066 1.2822584
-0.51072633 -0.2211597 1.2122233
-0.46144205 -0.25421605 1.252941
-0.52953917 -0.14276558 1.2328317
-0.48288441 -0.16461223 1.2775624
-0.60705805 -0.012434263 1.2089875
-0.55663824 -0.051806204 1.2502987
-0.49920562 -0.097636148 1.2970001
0.26124927 -0.033126265 1.2970006
-0.62444007 0.059208769 1.2275597
-0.57909918 0.038658939 1.2714993
-0.64607829 0.14774838 1.2521695
-0.59623897 0.10983758 1.2927498
-0.70293349 0.28021264 1.258281
-0.67498469 0.23909999 1.2698389
-0.70138741 0.30083466 1.2540001
-0.69922173 0.30083466 1.2540001
-0.30493689 -0.50934702 1.304396
-0.2497867 -0.52535754 1.3579721
-0.19587241 -0.56034583 1.3965002
-0.31999493 -0.43871614 1.3217485
-0.27265695 -0.4582808 1.367752
-0.4021934 -0.30150732 1.302
-0.34378129 -0.34777811 1.3443937
-0.29077315 -0.38031203 1.3904436
-0.4166584 -0.2346281 1.3197244
-0.37133735 -0.25738332 1.3626682
-0.43897057 -0.14565985 1.3426687
-0.38924304 -0.17404966 1.3879147
0.08512035 -0.11153226 1.394731
0.15338172 -0.11620629 1.3830655
0.25029746 -0.11910276 1.3748261
0.31815469 -0.11771408 1.3851573
-0.51357788 -0.031010563 1.3160788
-0.46666127 -0.055988148 1.3589277
0.083676286 -0.079027407 1.3919809
0.15370634 -0.051934358 1.3627585
0.24620831 -0.048673257 1.3241075
0.31851038 -0.057403062 1.3705751
-0.53411734 0.056572326 1.3384546
-0.48586407 0.030344049 1.3834344
0.17880476 0.024090871 1.3853284
0.24717343 0.047005385 1.3624638
0.3074441 0.026975382 1.3841077
-0.61098558 0.17556223 1.3129938
-0.56116575 0.14514542 1.3548044
0.26492703 0.11415591 1.3940532
-0.63039488 0.23235723 1.3211896
-0.58087975 0.212265 1.3681147
-0.10210534 -0.60209799 1.483
-0.09403614 -0.60292351 1.4933002
0.66737854 -0.60317576 1.4909763
-0.20761248 -0.51654637 1.4104029
-0.153761 -0.54621804 1.4549013
-0.095730543 -0.595465 1.4944092
0.68158478 -0.59092981 1.4921035
0.74739867 -0.56847376 1.4831748
-0.22625291 -0.44212446 1.4311002
-0.17935467 -0.46318907 1.4742619
-0.30771947 -0.31312165 1.4093975
-0.25402677 -0.35179615 1.4493859
-0.19714695 -0.38932547 1.4948335
-0.32442823 -0.24229442 1.4295552
-0.27726689 -0.26058742 1.4728847
0.14913985 -0.20222922 1.4959998
0.25866231 -0.2033698 1.4934171
0.34501579 -0.20389955 1.4933938
-0.40287098 -0.10681164 1.4082084
-0.35076469 -0.14998129 1.4495864
-0.29425746 -0.18922232 1.4902033
-0.10928607 -0.13696632 1.4926765
-0.047186185 -0.13745309 1.4692653
0.047384579 -0.14787652 1.4453143
0.14819644 -0.16454497 1.4469006
0.24935795 -0.16874696 1.4437388
0.35345531 -0.15633996 1.4472517
0.40853313 -0.15462044 1.4897813
-0.42019689 -0.038539533 1.4264201
-0.37544715 -0.058505695 1.4688742
-0.029260248 -0.068827517 1.4793234
0.044688769 -0.045310099 1.4399561
0.1118757 -0.013287427 1.4117208
0.36344516 -0.050170604 1.4485157
0.40187815 -0.08807236 1.4960002
-0.50199777 0.095156342 1.4040002
-0.4451797 0.053034175 1.4462861
-0.39204642 0.015071742 1.4894261
0.068202697 0.035537038 1.4755915
0.14234975 0.057535071 1.4349507
0.22495924 0.092331737 1.4088897
0.33504272 0.049242072 1.4544787
-0.51643747 0.15616313 1.4159617
-0.47026315 0.12595282 1.4559472
0.098520413 0.10182226 1.4960001
0.16359958 0.13695514 1.470928
0.2438567 0.15410054 1.4334385
0.31549314 0.14252061 1.472971
-0.54523855 0.20103559 1.404
0.19597962 0.20558666 1.4951767
0.25548956 0.234494 1.4777585
0.30430648 0.21896078 1.4924482
-0.80768162 0.49016178 1.4413075
-0.80792487 0.55216134 1.4597445
-0.79178959 0.57099652 1.4691869
-0.12754461 0.59916526 1.4960001
-0.0169212 0.59750795 1.4949995
0.052390605 0.5957073 1.4915862
0.15291372 0.59161365 1.4858068
0.25214577 0.58731437 1.4799563
0.35161912 0.58395356 1.4749824
0.45212486 0.58082551 1.4690434
0.55135107 0.57673824 1.4639732
0.65074021 0.57087445 1.4604038
0.74417078 0.55969197 1.457762
0.80389673 0.53100783 1.4895555
-0.81177461 0.61486369 1.4837019
-0.78593844 0.61414635 1.4830248
-0.5142234 0.6301685 1.4960002
-0.43694627 0.62673116 1.4952006
-0.345956 0.62233317 1.4918997
-0.24477939 0.61735123 1.489887
-0.14894864 0.61376727 1.4867719
-0.051183123 0.61052656 1.481999
0.048791796 0.60850918 1.4728665
0.14903758 0.60677618 1.4629655
0.249872 0.60565072 1.4553698
0.34894264 0.60399848 1.446781
0.43955997 0.60284752 1.4403143
0.51508731 0.60115582 1.4330003
-0.034508783 -0.61463302 1.5547192
0.0051746443 -0.63142067 1.5895767
0.19166042 -0.64308989 1.5930003
0.26442176 -0.62743521 1.5875531
0.34623677 -0.61693859 1.5715588
0.44602272 -0.61310989 1.5455863
0.54852504 -0.60844725 1.5211506
0.6216011 -0.60517353 1.5051109
-0.11255611 -0.52773964 1.5131754
-0.063536614 -0.55635542 1.5536026
0.29198459 -0.59998894 1.5930001
0.36707932 -0.58240288 1.5860493
0.45520541 -0.56345552 1.5726473
0.55096918 -0.55141944 1.5545694
0.64807117 -0.54786021 1.5296506
0.73806512 -0.52735639 1.5148882
0.80040437 -0.50580585 1.5090001
-0.13521069 -0.44430244 1.535422
-0.085162371 -0.46965513 1.5773444
0.57119423 -0.48570824 1.5874734
0.65634549 -0.46639499 1.5767726
0.7523697 -0.45274463 1.5581384
0.80955905 -0.43388388 1.5503318
-0.21238492 -0.32697567 1.5123101
-0.16370995 -0.35572356 1.5531859
0.77214563 -0.39039877 1.5903767
0.82116479 -0.37538293 1.5840625
-0.23215297 -0.24406572 1.5382475
-0.18473418 -0.27218148 1.5742319
-0.021364613 -0.21555281 1.5474067
0.05132227 -0.22610024 1.5510128
0.1501866 -0.2315563 1.5452141
0.24858405 -0.23546033 1.5444614
0.34253365 -0.22928016 1.5301886
0.42053974 -0.21292359 1.5222077
-0.31022325 -0.12302526 1.5126635
-0.26143309 -0.15458921 1.5528561
-0.11277788 -0.11239082 1.507625
-0.050422385 -0.18281442 1.5128418
0.035189256 -0.19628051 1.5059121
0.14308394 -0.19898568 1.503
0.44746721 -0.14580034 1.5443771
-0.3293941 -0.042389903 1.5332767
-0.28400207 -0.064804338 1.5757313
-0.11371633 -0.049949091 1.549224
-0.064195625 -0.037387341 1.5243194
0.0024201551 -0.0012684593 1.5020001
0.39383397 -0.030180771 1.5151697
0.42583659 -0.059784837 1.5568172
-0.40713954 0.082351074 1.5084745
-0.35924891 0.044164903 1.5447816
-0.29881838 0.0045695975 1.5930001
-0.10917819 0.010351589 1.5855769
-0.041314911 0.042433951 1.5612358
0.030941015 0.065060653 1.5230708
0.37826958 0.059000701 1.5430887
0.40814731 0.026485316 1.5790522
-0.41667077 0.1104546 1.5101531
-0.38919151 0.10361443 1.5344684
-0.013510392 0.11385081 1.5863814
0.055797674 0.1441817 1.554444
0.12835084 0.16958036 1.5179266
0.35395131 0.14925352 1.5445985
0.083776556 0.21752228 1.5826209
0.15459898 0.24593051 1.5507565
0.23154366 0.27385047 1.5168685
0.32744184 0.24800517 1.5476611
0.18082967 0.32127905 1.5820589
0.25104928 0.34655938 1.553073
0.31196469 0.34378719 1.569309
0.27404109 0.41437984 1.5836365
0.3032597 0.41013837 1.5809374
0.49109033 0.49637195 1.5916669
0.55389661 0.49411693 1.585354
0.65380371 0.49177003 1.5836571
0.75444055 0.48738569 1.575784
0.82432753 0.48142561 1.5690737
-0.82383716 0.59489286 1.588305
-0.74591434 0.59184635 1.5823331
-0.64873201 0.58933246 1.5773319
-0.54810411 0.58591211 1.5718614
-0.4484939 0.58220965 1.5667534
-0.348748 0.57929552 1.5626146
-0.24864049 0.57666451 1.5555009
-0.1489244 0.57280111 1.5509753
-0.050504554 0.56849253 1.546453
0.050099995 0.56085771 1.5469959
0.149708 0.5534941 1.5477422
0.2491827 0.54549599 1.546839
0.34993586 0.53729862 1.5461465
0.44928715 0.53171259 1.544122
0.54971927 0.52837926 1.5385746
0.65033197 0.5240069 1.5363184
0.74813527 0.51840216 1.5288036
0.81148791 0.51097399 1.5241274
-0.82234973 0.61346817 1.5515306
-0.75025851 0.61954838 1.5422071
-0.65090048 0.61868238 1.5330272
-0.55095702 0.61725354 1.5256438
-0.45248595 0.61380059 1.5185971
-0.35282931 0.60965335 1.5129879
-0.25893492 0.60661608 1.5085155
-0.1594934 0.60363573 1.5037351
-0.067896172 0.60186756 1.5020001
-0.0033188567 -0.60115886 1.6010002
0.054390598 -0.62702543 1.6333251
0.14840898 -0.62539923 1.6203233
0.2321723 -0.61428678 1.6061982
0.30174571 -0.60023719 1.6010001
-0.020108635 -0.53428298 1.6159611
0.045516148 -0.557253 1.6661401
0.15314069 -0.55317336 1.6632955
0.25059566 -0.55064553 1.6380545
0.34351027 -0.53909141 1.6196113
0.43603316 -0.51804924 1.607676
0.50662744 -0.50180542 1.6010001
-0.10311987 -0.40471676 1.601
-0.04391937 -0.44637519 1.6393449
0.010313665 -0.47686726 1.6837513
0.18043917 -0.49431041 1.6934044
0.25820202 -0.47359273 1.6802148
0.35259464 -0.45329249 1.6659616
0.45017326 -0.45049977 1.6416762
0.54512167 -0.44224837 1.6202443
0.6396457 -0.41999209 1.6097903
0.71224993 -0.40459132 1.6015683
-0.11936409 -0.33560237 1.6180689
-0.069669925 -0.35787791 1.6618756
0.084088393 -0.30301785 1.6670004
0.11707695 -0.30432764 1.6620009
0.38183844 -0.39647058 1.6939372
0.45822904 -0.37532797 1.6848596
0.55452055 -0.35724789 1.6676122
0.64977068 -0.35049835 1.6471916
0.74692631 -0.34561309 1.6258757
0.82444483 -0.32689276 1.61624
-0.20147258 -0.20485134 1.6010002
-0.14397815 -0.24591981 1.6408013
-0.09023913 -0.27517289 1.6865282
0.060497329 -0.27157557 1.6241608
0.14727393 -0.2794809 1.6216823
0.21625514 -0.27455705 1.6058648
0.58997315 -0.29547963 1.6959996
0.6625036 -0.27832931 1.6856843
0.75467986 -0.25898042 1.6742646
0.83872384 -0.24761404 1.6584387
-0.21751249 -0.13428199 1.6162109
-0.16803703 -0.15624876 1.6599702
0.86737758 -0.18206622 1.6903018
0.9012714 -0.15347797 1.6900001
-0.24037342 -0.045838997 1.6400553
-0.18647476 -0.075516693 1.6845702
0.4515484 -0.033533525 1.6190546
-0.31000262 0.037701182 1.60568
-0.27569753 0.016720369 1.6277316
-0.11162151 0.055546012 1.621356
-0.079033934 0.075588681 1.6104379
0.39851847 0.0992916 1.6010001
0.43854922 0.053496946 1.646264
-0.10844643 0.13739727 1.6683291
-0.052749202 0.15235864 1.6406358
0.016804898 0.18223044 1.6077087
0.38864186 0.16380368 1.6154511
0.41876531 0.1432043 1.6618276
-0.029471589 0.23465319 1.6772854
0.045197591 0.25439987 1.6362784
0.11245266 0.28087479 1.6072228
0.37555513 0.25394255 1.6391326
0.40918359 0.22625703 1.6857451
-0.0025394571 0.30289096 1.6960001
0.064870656 0.33379817 1.6736889
0.14391865 0.35617277 1.6326172
0.21288021 0.38822097 1.6062411
0.35251704 0.34403193 1.6420789
0.88776422 0.39583933 1.6905346
0.90365356 0.39004856 1.6905385
-0.44243842 0.4970488 1.6949995
-0.34509769 0.49536955 1.6907271
-0.24441293 0.49349397 1.6860439
-0.14618711 0.48860779 1.6825556
-0.047997043 0.48607954 1.6762688
0.051969312 0.48103178 1.6716305
0.15615985 0.46156311 1.6638052
0.24436142 0.46316347 1.6340196
0.35362154 0.47036356 1.6460176
0.45095766 0.46491408 1.646786
0.55007738 0.45569158 1.6477151
0.64875001 0.44979554 1.6452477
0.74892032 0.44328147 1.6470859
0.8427819 0.43330321 1.6495368
0.90148038 0.40840742 1.6723336
-0.91762012 0.54384881 1.6769658
-0.8475616 0.55957335 1.6510582
-0.75011224 0.55377448 1.6468955
-0.65040869 0.54430556 1.6466874
-0.55030882 0.53787267 1.6462616
-0.44998348 0.53229403 1.6452143
-0.35020009 0.52859032 1.6405567
-0.2510671 0.52673888 1.6350098
-0.15134594 0.52252549 1.6310457
-0.051163897 0.51907498 1.6240389
0.046760876 0.51462293 1.6205993
0.14709531 0.51078844 1.6142004
0.24593638 0.50762862 1.6068987
0.33988017 0.50386357 1.6023722
0.43626592 0.50122905 1.6010004
0.070844963 -0.51472139 1.7083359
0.11327525 -0.51273423 1.7047703
-0.0068539516 -0.4113217 1.7071075
0.054759506 -0.44727111 1.7387002
0.14835212 -0.44767138 1.7303324
0.24187163 -0.42929414 1.716496
0.31920546 -0.40877229 1.7042779
-0.024680993 -0.34020403 1.7232088
0.034334335 -0.36363295 1.7708322
0.15613316 -0.37189019 1.7765088
0.25368348 -0.3580215 1.7575788
0.34930906 -0.34895423 1.7356462
0.44356766 -0.32920724 1.7169602
0.524858 -0.31538802 1.7047318
-0.10514876 -0.209737 1.7040001
-0.057126973 -0.26299104 1.7298019
0.0075284173 -0.29568937 1.7750527
0.37863225 -0.2923567 1.7654026
0.45745158 -0.28249854 1.744051
0.55446953 -0.25336191 1.7319381
0.64329553 -0.23416649 1.7181928
0.73298496 -0.21320604 1.7057599
0.8008377 -0.2003735 1.7040001
-0.13336439 -0.14512447 1.7039996
-0.099664405 -0.19448787 1.7040001
0.57637554 -0.17333333 1.7765487
0.65237844 -0.16275384 1.7594234
0.74963635 -0.15963437 1.7340676
0.84694946 -0.14089589 1.7286736
0.9063431 -0.1192576 1.7239196
-0.20266302 -0.012033193 1.7040001
-0.16883601 -0.057991661 1.7153001
0.86461782 -0.077150494 1.7810838
0.92046946 -0.061946716 1.7737373
0.4659006 0.089438863 1.7093079
-0.10936823 0.19059077 1.7064828
-0.09708944 0.19727468 1.7040002
0.45666438 0.15724002 1.7322764
-0.10588545 0.23767456 1.7318059
-0.06688147 0.26236609 1.722164
0.39767173 0.29990545 1.7040001
0.43673077 0.24678396 1.7447772
-0.1012767 0.30633828 1.78425
-0.042860314 0.33469668 1.7565606
0.032006752 0.36694178 1.7232429
0.39137253 0.36661223 1.7334572
0.44891292 0.37669012 1.7694448
0.55059463 0.37896657 1.7640153
0.65247321 0.37519336 1.7561218
0.75220644 0.37146118 1.7545856
0.85093498 0.37000835 1.748472
0.92093652 0.35308066 1.7582603
-1.0034734 0.47801629 1.7930909
-0.94891751 0.4879964 1.7783009
-0.84760815 0.48102275 1.7691987
-0.74760437 0.47689167 1.7607617
-0.64906836 0.47452796 1.7548381
-0.5482738 0.47110581 1.7467116
-0.44835806 0.46593755 1.7470278
-0.34964785 0.46131182 1.7461776
-0.25015888 0.45557651 1.7476584
-0.14960791 0.44762903 1.7476013
-0.050522514 0.44033399 1.7482505
0.046603102 0.43536559 1.7393466
0.12696008 0.44245228 1.7132292
0.37802082 0.4212766 1.7193028
0.44736132 0.4153353 1.7227583
0.54679549 0.40979636 1.7158276
0.64432383 0.40661103 1.7109311
0.74231195 0.40479439 1.7065884
0.84461212 0.40449819 1.704
-0.93686259 0.51528615 1.7297857
-0.85162371 0.51452124 1.7204424
-0.75470388 0.5109573 1.7127846
-0.65415281 0.50476307 1.7089264
-0.56302428 0.50215745 1.7040007
-0.48272112 0.50050753 1.7040004
-0.39836037 0.50001705 1.7040001
0.066420436 -0.34908545 1.8068585
0.11927335 -0.34955695 1.8030009
0.27909842 -0.30698556 1.8030001
0.023767553 -0.29920107 1.8030001
0.57123435 -0.14450796 1.8030003
0.82727081 -0.10565872 1.8372223
0.84894472 -0.036511421 1.8269022
0.92391837 -0.015250977 1.8065126
0.85962528 0.047082402 1.859872
0.93814677 0.054512762 1.8428942
0.87218094 0.11077387 1.8913605
0.95477796 0.12500452 1.8837534
1.002057 0.14747533 1.8924209
0.48050919 0.28086525 1.8582063
0.55201966 0.29460281 1.8895603
0.65329444 0.29027417 1.8842604
0.7506662 0.28642964 1.8783913
0.85182756 0.2840333 1.8739988
0.94942445 0.28195044 1.8709913
1.0025367 0.26349941 1.8916249
-0.90187031 0.39855403 1.8930001
-0.84724194 0.39791483 1.8924214
-0.74497312 0.39377829 1.8898704
-0.64995849 0.39042845 1.8878088
-0.5508526 0.38557151 1.8773589
-0.44886485 0.38385758 1.8739934
-0.34833181 0.38089541 1.8709646
-0.24780408 0.37794507 1.8611428
-0.14917727 0.37261897 1.8566258
-0.067191772 0.37997979 1.8171099
0.47094035 0.33809218 1.8321127
0.55046475 0.32960013 1.8419653
0.64786315 0.32517225 1.831809
0.74842685 0.32040495 1.8270605
0.84973764 0.31883642 1.8250805
0.9373008 0.31425536 1.8211017
-1.0114359 0.45573875 1.8322104
-0.94727522 0.44237632 1.8434124
-0.85071129 0.43211824 1.8453655
-0.75189894 0.42760897 1.8385148
-0.6507408 0.42434034 1.832473
-0.55040956 0.42246294 1.8268933
-0.45200852 0.41719881 1.8224995
-0.34873903 0.41422826 1.8197691
-0.25099429 0.41160989 1.8116249
-0.15726916 0.40930828 1.8107047
-0.062969178 0.40424395 1.8069892
0.85275149 -0.10867663 1.9486554
0.84937233 -0.049769685 1.9509941
0.83837968 0.052746896 1.9446157
0.85739636 0.15207557 1.9372211
0.9439522 0.17116657 1.9244623
1.0089878 0.18619134 1.9213333
-0.47256926 0.29899076 1.9920001
-0.34727487 0.29327106 1.9873879
-0.25623116 0.29607448 1.9902624
-0.16296217 0.29408056 1.9865756
0.55851394 0.26058498 1.9416397
0.65177298 0.25133049 1.9468898
0.75006521 0.24111129 1.9489856
0.84984434 0.23633553 1.9481533
0.94911164 0.2338139 1.942845
1.0166935 0.22613244 1.9407445
-0.91493672 0.38826656 1.9128627
-0.84593993 0.3706263 1.9239106
-0.75295973 0.35025215 1.940753
-0.65044612 0.35047781 1.9484793
-0.54845572 0.34181559 1.9471018
-0.45077828 0.33590069 1.9450442
-0.35008463 0.33175761 1.9423469
-0.25024161 0.32792312 1.9438522
-0.16041867 0.32382417 1.9448013
-0.92744917 0.40093338 1.903
-0.83104521 0.40065944 1.9030002
0.87472034 -0.11675078 2.0456035
-0.20328936 -0.019352857 2.0900002
-0.18367994 -0.035124201 2.071521
0.86717224 -0.049209666 2.0447054
0.86028028 0.048482366 2.0481944
0.58433223 0.18073581 2.0610197
0.65109128 0.17590126 2.0560424
0.75244588 0.17146657 2.0508213
0.83554965 0.15794773 2.0500078
-0.72786629 0.28108552 2.0490079
-0.64796537 0.27602595 2.0602195
-0.54960448 0.27375627 2.0565169
-0.45011038 0.26941222 2.0519726
-0.34928474 0.26358828 2.0469439
-0.24759801 0.26184127 2.0483127
-0.16755497 0.25760156 2.0477388
0.57629132 0.21295917 2.0136244
0.64435005 0.21194522 2.0133848
0.74354762 0.20414189 2.0065494
0.80512393 0.20042527 2.0040002
-0.75144058 0.31067002 2.0175562
-0.65186906 0.30880862 2.0154812
-0.55480909 0.30659595 2.0103264
-0.44171864 0.30235276 2.0046
-0.39754543 0.30079192 2.0040002
-0.23488224 0.30079192 2.0040002
0.89365113 -0.11948466 2.1421599
0.90275449 -0.12882306 2.1840005
-0.20371401 -0.0048608081 2.102
-0.18747541 -0.0099939741 2.1078081
0.88797414 -0.050105069 2.1517279
-0.20051703 0.053403806 2.1642003
-0.18295139 0.051993757 2.1445575
0.66476959 0.090970807 2.1896539
0.75346017 0.085244685 2.181304
0.85842359 0.067792661 2.1665525
-0.6111744 0.19383904 2.1863332
-0.5479573 0.18027987 2.1821327
-0.4578945 0.17821869 2.1479473
-0.34725028 0.18270431 2.177726
-0.24533525 0.17860654 2.172431
-0.17928317 0.15981326 2.1776693
0.59342128 0.14317594 2.1160002
0.65174681 0.12616299 2.1377614
0.74730241 0.12137617 2.1301713
0.83563632 0.11623126 2.123569
-0.70611858 0.25156423 2.1140003
-0.64383978 0.2312855 2.1273746
-0.55121273 0.22523843 2.1320188
-0.44768628 0.21972737 2.1226392
-0.34907463 0.21695966 2.1259904
-0.25438315 0.21429059 2.122045
-0.17546348 0.20860824 2.1222503
0.91210824 -0.12513195 2.2457976
0.88946646 -0.046136055 2.2382004
0.91040933 -0.051864967 2.25424
-0.37436488 0.098303959 2.2850001
-0.20827472 0.096243739 2.2525001
-0.19804944 0.097029582 2.2110002
0.66639906 0.056606263 2.2423756
0.74884039 0.04515969 2.2470934
0.85126942 0.032570098 2.2472811
0.90351701 0.0093039116 2.2602177
-0.53008509 0.14679335 2.2284868
-0.44790536 0.13845184 2.2533982
-0.35177299 0.13612247 2.2507224
-0.25365222 0.13249776 2.2463014
-0.18175755 0.14883266 2.2110002
0.92968804 -0.11163228 2.3352799
0.68942779 -0.012669432 2.3437335
0.75173974 -0.027365131 2.3582621
0.84917516 -0.031978671 2.3482375
0.92172992 -0.049344268 2.3486774
-0.41898179 0.086264148 2.3193185
-0.34828264 0.069153234 2.3489377
-0.26186007 0.065112934 2.3468904
0.68060178 0.012016277 2.3049784
0.7494688 0.0089632589 2.3027546
0.82208824 0.0068235211 2.3010323
-0.42695323 0.10524989 2.2999997
-0.33842534 0.10329968 2.2999997
-0.25599331 0.10497155 2.3
0.77180076 -0.11212163 2.471082
0.84932613 -0.11394911 2.4740891
0.9336164 -0.11824571 2.4618628
-0.30732065 -0.0031725722 2.431
-0.26560208 -0.0080089029 2.4610002
0.75410426 -0.076322511 2.4272194
0.84833503 -0.083130158 2.4289336
0.92017955 -0.085969269 2.4245355
-0.32368886 0.020244848 2.421556
-0.2657932 0.01323565 2.4284887
0.81238747 -0.20222569 2.5970001
0.77597982 -0.14303659 2.5292864
0.85023922 -0.15893286 2.5307131
0.93766248 -0.15664512 2.5137064
1.0201505 -0.15177175 2.5780001
0.77796775 -0.14502861 2.6170001
