# .PCD v0.7 - Point Cloud Data file format
VERSION 0.7
FIELDS x y z
SIZE 4 4 4
TYPE F F F
COUNT 1 1 1
WIDTH 607
HEIGHT 1
VIEWPOINT 0 0 0 1 0 0 0
POINTS 607
DATA ascii
-0.60146755 -0.40913221 1.0750834
-0.58358002 -0.42200381 1.0857874
-0.60521984 -0.36978966 1.0899993
-0.59240717 -0.38555843 1.0931817
-0.53289771 -0.4257853 1.131582
-0.47801423 -0.44497332 1.1795124
-0.60851872 -0.32264745 1.1117766
-0.55560684 -0.35335431 1.1507703
-0.49403509 -0.39015859 1.194333
-0.61729252 -0.24596788 1.1488916
-0.58052397 -0.26491702 1.1775032
-0.63680488 -0.16168796 1.1808118
-0.59870368 -0.19708724 1.197
-0.66478032 -0.087530568 1.1953489
-0.34874487 -0.50976044 1.2778333
-0.43203425 -0.44061917 1.2317475
-0.37725458 -0.46305221 1.2747095
-0.51494318 -0.32391739 1.2147328
-0.45795435 -0.35502663 1.2542641
-0.39677525 -0.39410222 1.2953335
-0.5379172 -0.24370357 1.2373302
-0.48292428 -0.26805681 1.2787691
-0.62002605 -0.13146684 1.2178099
-0.56531984 -0.15783466 1.2602005
-0.64080656 -0.048505645 1.2454243
-0.58798748 -0.076508828 1.283592
0.26264584 -0.031834848 1.2969992
-0.70313835 0.087856188 1.2637824
-0.66903108 0.041771207 1.270292
-0.71078861 0.13930209 1.2859634
-0.69386655 0.11667135 1.2912755
-0.31339017 -0.51330054 1.3121762
-0.25211594 -0.52671582 1.3642637
-0.19603735 -0.56047893 1.3970002
-0.33342066 -0.44248557 1.3312743
-0.27677685 -0.46248934 1.3772625
-0.41583407 -0.32641658 1.3152815
-0.35849574 -0.35575038 1.356809
-0.29610619 -0.39303383 1.3954837
-0.5011301 -0.20144635 1.302
-0.44051325 -0.24466509 1.3382128
-0.38205552 -0.27092677 1.38252
-0.52102423 -0.13466489 1.3193533
-0.46626052 -0.15796719 1.3630066
0.09520518 -0.10608429 1.3980002
0.15484895 -0.11622366 1.3834803
0.25044066 -0.11993014 1.3720711
0.32911828 -0.11915623 1.3824419
-0.60655218 -0.012225427 1.305527
-0.54721767 -0.047553759 1.3447829
-0.48851037 -0.076311715 1.3876559
0.094129294 -0.091010407 1.3969086
0.16000596 -0.056325331 1.3680594
0.24624889 -0.049151674 1.3234349
0.32659879 -0.055402026 1.3648854
-0.62682849 0.060888417 1.3260071
-0.57116413 0.040325768 1.3705971
0.18494746 0.019256106 1.3889909
0.24939597 0.046247359 1.3616701
0.31185791 0.029074831 1.3806717
-0.71111083 0.18180346 1.3129032
-0.65409428 0.14706969 1.3509407
-0.59351683 0.11256636 1.3937128
0.26691416 0.11586512 1.3920404
-0.72024602 0.22053474 1.3283836
-0.68129647 0.2089553 1.3616179
-0.072551325 -0.6031161 1.4942502
0.57887602 -0.60415941 1.4939183
0.6046471 -0.60196251 1.489
-0.20957279 -0.51694006 1.4106156
-0.15100858 -0.543805 1.4518524
-0.089211561 -0.58244669 1.4890243
0.59151113 -0.59511155 1.4945412
0.66069901 -0.56894827 1.4814478
0.73461092 -0.54148555 1.465556
-0.232548 -0.4428823 1.4327458
-0.17649835 -0.46455348 1.4745232
0.76789135 -0.4799931 1.4902035
-0.31564581 -0.3274177 1.4188037
-0.25984225 -0.35684475 1.4562027
-0.1977324 -0.39422902 1.4960002
-0.40377754 -0.20396371 1.4045002
-0.34164557 -0.2451138 1.4418719
-0.28340736 -0.27181277 1.4820583
0.08301881 -0.20175077 1.4960002
0.15060037 -0.20301986 1.4960001
0.25322339 -0.2045574 1.4933934
0.35045877 -0.20574252 1.4916068
0.41732958 -0.2039879 1.4950272
-0.4220508 -0.1370465 1.4218998
-0.36792967 -0.15805213 1.4659845
-0.026138449 -0.14365327 1.4821545
0.049780603 -0.1462204 1.449295
0.1467227 -0.16379544 1.4431142
0.24930227 -0.16997333 1.4419783
0.35552582 -0.16073841 1.4400716
0.42485631 -0.15211003 1.472205
-0.50753099 -0.0076429523 1.4078401
-0.44812119 -0.048014347 1.4474198
-0.38903418 -0.081387706 1.4875783
-0.0091687869 -0.085822344 1.494303
0.055343274 -0.054425005 1.4569428
0.12023733 -0.025631169 1.4183514
0.37595671 -0.045060325 1.437181
0.41315433 -0.067777701 1.479169
-0.52792138 0.060572192 1.4286999
-0.47436944 0.04035471 1.4719424
0.083115697 0.024953011 1.4839617
0.1474386 0.05316725 1.4441769
0.21596529 0.086287394 1.4104892
0.34441411 0.050497495 1.4473085
-0.61261618 0.17123087 1.4084615
-0.55618143 0.12891944 1.439117
-0.49072149 0.10914153 1.4932423
0.1726148 0.13406569 1.4741533
0.24305132 0.15454265 1.4359878
0.3219499 0.14261629 1.4703242
0.25778779 0.23493327 1.4767609
0.30699086 0.2201201 1.491846
-0.83203286 0.45053428 1.483
-0.22534449 0.59812301 1.494975
-0.14499383 0.59689939 1.4948447
-0.04164933 0.59512234 1.4924358
0.050855417 0.5930354 1.4883244
0.15296237 0.59035426 1.4827986
0.25127882 0.58663368 1.4781168
0.35078934 0.58355707 1.4742858
0.45190588 0.58166444 1.4689406
0.55054945 0.57738161 1.464875
0.65082312 0.5729959 1.4620054
0.74504596 0.5626502 1.4593618
0.80363643 0.53426403 1.4890739
-0.82761949 0.62669671 1.4959996
-0.75108999 0.62867975 1.4960002
-0.64259052 0.6262778 1.4945759
-0.5469141 0.6226182 1.491915
-0.44620743 0.6184333 1.4888451
-0.34923646 0.61470747 1.4877205
-0.24887702 0.6117835 1.4845071
-0.15131235 0.60977519 1.4799452
-0.052549783 0.60859764 1.4748063
0.04947304 0.60717916 1.4662343
0.14881246 0.60594928 1.4578632
0.24975066 0.60506028 1.4518036
0.34799954 0.60368425 1.4448749
0.44092336 0.60292602 1.4405284
0.51508725 0.60115582 1.4330003
-0.026582902 -0.61095554 1.5330427
0.024294542 -0.62165534 1.5769386
0.28280464 -0.63279122 1.5900215
0.34734574 -0.6183567 1.5737231
0.44350609 -0.61186647 1.5402925
0.53182781 -0.60648459 1.5108972
-0.11046311 -0.51857197 1.5069648
-0.050571933 -0.55020648 1.5455272
0.0095903156 -0.58280629 1.5844392
0.37467936 -0.58167863 1.5848511
0.4556157 -0.55819428 1.56785
0.55022824 -0.55016059 1.5363759
0.63941145 -0.52886808 1.5154474
0.71000081 -0.50688386 1.5019995
-0.13427782 -0.44210827 1.5287292
-0.07743492 -0.46476287 1.571243
0.48715776 -0.49012241 1.590798
0.56104964 -0.46913198 1.57911
0.65210587 -0.45180899 1.5565547
0.74353331 -0.44218096 1.5263644
0.80278325 -0.40692377 1.5225835
-0.21851872 -0.32886899 1.5153664
-0.15997399 -0.35675222 1.5554733
-0.098281406 -0.39326197 1.5930002
0.6776672 -0.38185295 1.5869485
0.75597692 -0.36074045 1.570778
0.81293672 -0.3415536 1.5589252
-0.30323616 -0.20667124 1.5024377
-0.24271458 -0.2452471 1.539747
-0.18499516 -0.27746195 1.5781785
-0.017448565 -0.21178395 1.532685
0.051678658 -0.227112 1.5460205
0.15034331 -0.23564152 1.547348
0.24921414 -0.23806606 1.5457072
0.34164652 -0.23448011 1.5347924
0.43144369 -0.21346833 1.5136571
0.79509562 -0.29564631 1.5930002
0.82651699 -0.27929965 1.5892096
-0.32293105 -0.13755231 1.521897
-0.26859906 -0.15913434 1.5649673
-0.10247456 -0.11269306 1.5532665
-0.067015491 -0.14521307 1.5186341
0.022858156 -0.19664547 1.503441
0.10150951 -0.19996597 1.5020001
0.47497299 -0.14882882 1.5292474
0.50647742 -0.11581892 1.5638062
-0.4081299 -0.013120217 1.5090001
-0.35026616 -0.048945662 1.5466894
-0.28979903 -0.082847431 1.5879441
-0.10232237 -0.071131274 1.5762756
-0.048231553 -0.052053139 1.550805
0.015360191 -0.020150375 1.5163001
0.3985182 -0.0015278555 1.5020001
0.45227441 -0.052834131 1.5482666
0.50306135 -0.091690101 1.5793847
-0.43084663 0.053721488 1.5251245
-0.3732965 0.029538814 1.5676473
-0.020335514 0.026665892 1.5786393
0.043188274 0.055268824 1.5398211
0.1075161 0.091052957 1.5080867
0.38453186 0.062976986 1.5188746
0.41969275 0.042213678 1.5602417
-0.47433558 0.10671559 1.5057366
0.070123784 0.13745353 1.5689702
0.13337988 0.160678 1.5274163
0.36736506 0.15322188 1.5435851
0.40571073 0.12192807 1.5854129
0.094947554 0.20780255 1.5905218
0.16037515 0.24256563 1.557983
0.23030873 0.27003586 1.5191951
0.3355262 0.24786521 1.5488499
-0.8402983 0.38032809 1.5097305
0.1864319 0.31823173 1.5837004
0.25121793 0.34561491 1.5530225
0.31426877 0.34115702 1.5689731
-0.83128321 0.45341429 1.5279849
0.27309597 0.41572696 1.583869
0.30363554 0.41205892 1.5887897
0.48803213 0.49704334 1.5912501
0.55460668 0.49524969 1.5882585
0.65322626 0.49308199 1.5851127
0.75233591 0.49005774 1.5786791
0.82662791 0.48585808 1.5730051
-0.83082306 0.56109113 1.5640323
-0.75238597 0.58149987 1.5688932
-0.64917141 0.58004761 1.5653949
-0.54944271 0.5783217 1.5613642
-0.44888735 0.57486206 1.5542617
-0.34936854 0.5729208 1.5520247
-0.25013337 0.57056957 1.5488262
-0.14907868 0.56616992 1.5462788
-0.051148005 0.56156492 1.5451517
0.049799722 0.55585295 1.5460631
0.14982536 0.55009818 1.5466665
0.24977158 0.5428341 1.5467721
0.35038626 0.53589183 1.5467707
0.44927457 0.53231663 1.5438967
0.54967564 0.52825159 1.5402125
0.64997327 0.52564514 1.5381497
0.74865699 0.52115309 1.532598
0.81336868 0.51277089 1.5291301
-0.82713526 0.61371952 1.5265594
-0.74976116 0.6144278 1.5220234
-0.65106529 0.61286336 1.517568
-0.55260241 0.6103645 1.5136795
-0.45602512 0.60787117 1.509304
-0.35658279 0.60381526 1.5052341
-0.28082505 0.60284621 1.5025673
0.07316158 -0.62368011 1.6211665
0.14999247 -0.6299271 1.6430564
0.24123405 -0.62152296 1.6153365
0.31096134 -0.60410845 1.6026744
-0.012193399 -0.51406193 1.6055536
0.050738525 -0.54866153 1.6432765
0.15739256 -0.5677973 1.6783473
0.2511166 -0.55116534 1.6529806
0.3438862 -0.54157484 1.6225522
0.42295611 -0.51707977 1.6074995
-0.035625469 -0.44219247 1.6271149
0.02562706 -0.46202698 1.6729825
0.27152157 -0.48010021 1.6854452
0.35481328 -0.45574439 1.667835
0.44846597 -0.44857842 1.635783
0.53755575 -0.42754164 1.614206
0.61140287 -0.40331843 1.6018243
-0.11870713 -0.32768965 1.6144636
-0.059002209 -0.35562119 1.6543568
0.0030921632 -0.38944656 1.6939228
0.14784147 -0.30864397 1.6614333
0.20400667 -0.30201554 1.6422001
0.3879559 -0.39568409 1.6934206
0.45819682 -0.37002075 1.6792912
0.55047679 -0.35111001 1.653636
0.64427888 -0.34383208 1.6230663
0.73275238 -0.31625456 1.6078428
-0.20406522 -0.20832439 1.6026365
-0.14508612 -0.24542221 1.6390995
-0.082575142 -0.27238625 1.6824311
0.068168662 -0.26967922 1.6095854
0.14965525 -0.28374559 1.6240938
0.23114747 -0.28072202 1.6102365
0.57116926 -0.27943817 1.6885768
0.65450728 -0.25736523 1.6697694
0.75045615 -0.25031936 1.638292
0.82651651 -0.23275752 1.6198746
-0.2246419 -0.1378051 1.6203187
-0.16485234 -0.16006117 1.667473
0.69333398 -0.19334401 1.6926484
0.75967401 -0.17138419 1.6816609
0.84232068 -0.15159504 1.6666597
-0.30973965 -0.015328674 1.6078664
-0.25231117 -0.051482078 1.6455495
-0.15892947 -0.066769034 1.6606214
-0.085865185 -0.014992274 1.6091379
0.48569122 -0.027979875 1.6141645
0.50181413 -0.042455021 1.6222726
0.87750232 -0.089646205 1.6899818
-0.32404187 0.019223891 1.6140354
-0.28457814 0.0091700396 1.6412998
-0.10329012 0.053474616 1.6627952
-0.058530074 0.056973595 1.631418
0.0028814485 0.09581206 1.6016364
0.46628097 0.054573447 1.6366313
-0.03792347 0.14101447 1.6682861
0.028906625 0.16230287 1.6221274
0.39504018 0.18678077 1.60315
0.43952373 0.14574063 1.6503861
-0.012059344 0.21377896 1.6920261
0.055035476 0.24554995 1.6540024
0.1200895 0.27290216 1.6144097
0.38142055 0.25978118 1.6258856
0.41709498 0.24161042 1.6692805
0.08091712 0.32655162 1.6842383
0.14753169 0.35236993 1.6433939
0.21368903 0.38476628 1.6087629
0.35664549 0.34741932 1.6354462
0.40516528 0.31550029 1.6914784
0.89679754 0.3967191 1.6948751
0.90489292 0.39528802 1.6945
-0.72836488 0.49653566 1.6959995
-0.6435371 0.49473664 1.6916146
-0.54355401 0.49334684 1.6887889
-0.44733548 0.49144638 1.6847364
-0.34823963 0.48994637 1.6811501
-0.24759054 0.48896599 1.6773897
-0.14795829 0.48442557 1.6753389
-0.048447013 0.4821519 1.6697725
0.051743574 0.47854105 1.6650544
0.1557427 0.46534717 1.6628295
0.24307209 0.46368358 1.634424
0.35257021 0.46841085 1.6450434
0.45094812 0.46468595 1.6471725
0.54971004 0.45686576 1.6482327
0.64937866 0.45263848 1.64575
0.74883085 0.44740677 1.6472964
0.84402019 0.4389275 1.6512178
0.90269411 0.4067274 1.6790001
-0.91605413 0.54023707 1.6444257
-0.84443784 0.53596503 1.6542999
-0.7498349 0.53531975 1.6460805
-0.65076405 0.53025746 1.6417297
-0.55094433 0.52812034 1.6374437
-0.45137486 0.52553082 1.6345847
-0.35077044 0.52255321 1.6300639
-0.25003001 0.52127051 1.6273781
-0.15136284 0.51808769 1.6235876
-0.050588623 0.51535434 1.6190438
0.04651317 0.5126453 1.6145115
0.14544748 0.50898105 1.6103789
0.2459062 0.50606567 1.6043925
0.3439796 0.50223178 1.6011744
0.43427199 0.50049329 1.6010005
0.091652416 -0.51000094 1.7057235
0.14162272 -0.52288622 1.7137765
0.2066856 -0.50487721 1.7046667
0.069441803 -0.44077387 1.7254306
0.15113096 -0.45096537 1.754151
0.2436121 -0.44090566 1.7259104
0.32095531 -0.41501471 1.7072021
-0.016860629 -0.32746306 1.7130239
0.043844447 -0.35474753 1.751945
0.17371202 -0.38099849 1.7876227
0.25544703 -0.36546296 1.7676225
0.35186315 -0.3520599 1.7376111
0.43929935 -0.32518971 1.7140195
0.50599003 -0.30642807 1.7039999
-0.10260723 -0.2003735 1.7040001
-0.047931358 -0.25879034 1.7204192
0.014973796 -0.28780854 1.7628696
0.38727823 -0.29574186 1.7613783
0.46159247 -0.28244227 1.7332574
0.54962319 -0.24870437 1.7151227
0.62774807 -0.21344642 1.7081302
-0.13650189 -0.12676211 1.716274
0.58519936 -0.1728037 1.7484535
0.65101635 -0.15472738 1.7350487
0.73962349 -0.12844148 1.7160771
0.81744879 -0.10902381 1.7050308
-0.20577525 -0.036343236 1.7069393
-0.15895881 -0.070419602 1.7269924
0.77013451 -0.094534643 1.7191064
0.86803323 -0.053012267 1.7379571
0.91052723 -0.028324353 1.7397376
0.49772751 0.093908228 1.7040001
0.88119072 0.022138668 1.7818377
0.92429405 0.044512834 1.7786101
-0.07437624 0.17134276 1.7172848
0.48244655 0.16691904 1.7231675
0.50273293 0.16678455 1.7451199
-0.046540085 0.2507323 1.7464181
0.015626317 0.28209978 1.7126809
0.4633272 0.250543 1.7419571
0.50086468 0.23359314 1.7778571
-0.026280332 0.32704091 1.7781041
0.043076687 0.35336897 1.741973
0.10702301 0.39236459 1.7093753
0.39546993 0.38137665 1.732
0.45042709 0.37049344 1.7633295
0.55027848 0.37985674 1.763449
0.65182424 0.37638336 1.7589037
0.75147498 0.37288636 1.7581668
0.85025644 0.37425163 1.7515517
0.92143291 0.35881075 1.7605479
-0.93166739 0.46807197 1.7709761
-0.84856498 0.47175166 1.7524784
-0.74990398 0.46638149 1.7470845
-0.64983606 0.46064222 1.7466294
-0.5499745 0.45695668 1.7464483
-0.44979551 0.45182535 1.7464911
-0.3503643 0.44828618 1.7463638
-0.250312 0.4452664 1.7461394
-0.15053807 0.43819171 1.7479508
-0.051341284 0.43408036 1.7455819
0.047244526 0.429905 1.7424266
0.13019769 0.43249825 1.7206322
0.3791649 0.42197165 1.7179081
0.44621086 0.41520497 1.7235339
0.54790848 0.409789 1.716558
0.64525825 0.40796077 1.7127212
0.75034082 0.40562302 1.7101588
0.84071046 0.40523416 1.7053841
-0.90401256 0.50234562 1.717
-0.85363048 0.50359154 1.704568
-0.78193825 0.50240809 1.7039996
0.12807955 -0.40195614 1.8030002
0.087536342 -0.33426461 1.8057675
0.13019717 -0.3714962 1.8093923
0.21163292 -0.34798375 1.8030001
0.88919306 -0.03868923 1.8557042
0.90074444 -0.046604984 1.8820001
0.8767122 0.060286283 1.8275391
0.92246103 0.086908832 1.8084617
0.88133842 0.14445032 1.8646996
0.93761802 0.15239951 1.8412368
-0.081035085 0.29171738 1.8074093
0.49580917 0.2791802 1.8127501
0.54513639 0.28993949 1.8799642
0.65241641 0.29214561 1.8863049
0.75046813 0.28798318 1.8804065
0.85605204 0.27963293 1.8801557
0.95137006 0.25746483 1.8747855
1.0037671 0.24689238 1.8879234
-1.0308559 0.39522564 1.8896719
-0.94466281 0.39166591 1.8865798
-0.84719473 0.3854551 1.8768258
-0.74847651 0.38361904 1.8740742
-0.65081173 0.38132796 1.8724841
-0.54892308 0.3786124 1.8645333
-0.4482249 0.37685961 1.8603857
-0.34878966 0.3757647 1.8580102
-0.24761982 0.37209997 1.8557932
-0.15027978 0.36881271 1.854627
-0.058142655 0.36487031 1.8334482
0.0092186313 0.38211644 1.8071188
0.47993562 0.34555957 1.820526
0.55115062 0.33098939 1.8412846
0.64864349 0.32681599 1.8351846
0.74878526 0.32334965 1.8310384
0.85118824 0.32231322 1.8306072
0.93768537 0.3169685 1.8280045
-1.0204095 0.41511852 1.858795
-0.94976193 0.42507184 1.8334976
-0.85068917 0.4218466 1.8263243
-0.7510007 0.41836563 1.8233554
-0.64883304 0.41378629 1.8190759
-0.5538379 0.41274634 1.8141723
-0.45273134 0.40955326 1.8091066
-0.34918538 0.40899089 1.8108526
-0.25365421 0.40672576 1.8084886
-0.15683091 0.40336969 1.8056886
-0.080422424 0.40220997 1.8034546
0.89795482 -0.013827795 1.9145501
0.9152962 -0.051312376 1.9511971
0.89284849 0.068079516 1.9294326
0.90645236 0.04298386 1.9615334
0.88090104 0.15391333 1.9361365
0.90178865 0.11666044 1.9920001
-0.81142849 0.29899076 1.9920003
-0.75369471 0.26848692 1.9836805
-0.66113019 0.29738542 1.9919995
-0.53170526 0.29474458 1.9885861
-0.46387237 0.29369441 1.9841635
-0.34437472 0.28628582 1.9817075
-0.24919695 0.29189277 1.9840875
-0.15165214 0.28988495 1.9776412
0.5762344 0.26353604 1.938887
0.65153599 0.25386652 1.9468167
0.74997145 0.24621931 1.9480929
0.85198504 0.23942253 1.9475838
0.94855094 0.24776174 1.923912
1.0073209 0.25069749 1.9123086
-1.0318534 0.36906317 1.9316375
-0.94938827 0.35049915 1.9465705
-0.84917325 0.33797595 1.9498457
-0.75132394 0.33454803 1.9464848
-0.65026027 0.33251467 1.944925
-0.54832441 0.32898048 1.940513
-0.4490011 0.32646793 1.9380399
-0.34944785 0.32585576 1.9375091
-0.25209409 0.32274508 1.9369943
-0.14837544 0.31889674 1.928234
-0.097251289 0.30593953 1.9066668
0.94685924 -0.10012437 2.0640001
0.94162196 -0.048394274 2.0461631
0.93101197 0.045310665 2.053019
0.65554363 0.17779805 2.057961
0.75233775 0.17314668 2.0552716
0.8509956 0.17018911 2.0510752
0.91357028 0.14367712 2.0593679
-0.90995938 0.29269966 2.0128236
-0.84507173 0.27832636 2.0329442
-0.73675752 0.26431644 2.0462084
-0.64873427 0.26696354 2.0464373
-0.55189794 0.26279294 2.0480986
-0.44783241 0.2594924 2.0436344
-0.34984261 0.24961425 2.0424387
-0.2494379 0.25316828 2.0417492
-0.15290661 0.25012881 2.0462358
0.5940364 0.21729286 2.0200005
0.64320153 0.21226467 2.0162799
0.74760777 0.20689155 2.0086215
0.84492451 0.20354566 2.0039992
-0.91630781 0.30717838 2.0045331
-0.87742907 0.30407062 2.0040002
-0.62250513 0.30079192 2.0040002
-0.5965482 0.30079192 2.0040002
0.97183055 -0.049943492 2.153712
-0.45599535 0.087643504 2.1751244
0.67950875 0.091818497 2.1871994
0.7513383 0.087725885 2.1824236
0.85465264 0.083665818 2.1824086
0.94256425 0.069504999 2.1676459
-0.71230501 0.19074771 2.1622303
-0.64545554 0.17978856 2.1747763
-0.55168605 0.17982294 2.1703341
-0.44370136 0.16139773 2.1709988
-0.3536323 0.17393437 2.1640832
-0.25023168 0.17500609 2.1640575
-0.16029333 0.17286125 2.1533928
0.66577202 0.1300834 2.1354489
0.74752992 0.12246588 2.1327796
0.84915882 0.11972244 2.1256311
0.92050332 0.1141962 2.1235051
-0.73562509 0.22274789 2.1217947
-0.65213484 0.21803054 2.1214499
-0.55018562 0.21621041 2.1209228
-0.45057559 0.21421848 2.1162188
-0.35393673 0.212294 2.1175895
-0.25173789 0.21121351 2.1155548
-0.15954015 0.20733529 2.1086223
0.9903549 -0.025822675 2.2339315
1.0037344 -0.046881583 2.2633333
-0.51747614 0.097750828 2.2721431
-0.45683241 0.09626472 2.2526665
-0.3494474 0.096499987 2.2850006
-0.28031364 0.097646259 2.2850001
-0.16205554 0.095101453 2.2802
0.68741918 0.0645357 2.2354996
0.74866718 0.04884642 2.2494566
0.85036922 0.03972137 2.2487345
0.94703305 0.033151079 2.2457306
-0.62428039 0.14436497 2.2288051
-0.54601628 0.1341259 2.2358482
-0.46260449 0.1212583 2.2318211
-0.34914076 0.1273929 2.2429829
-0.24978858 0.12517428 2.2445474
-0.17048444 0.1235771 2.2367523
-0.15180486 -0.0063372571 2.3913333
0.76761371 -0.022981755 2.3567624
0.84934926 -0.028240878 2.3525846
0.95229501 -0.03344667 2.3544126
1.0215559 -0.050434161 2.3589008
-0.43240404 0.070048735 2.3291874
-0.35036761 0.05851512 2.3481228
-0.24915877 0.060486183 2.347023
-0.17395739 0.051345225 2.3505509
0.75585556 0.011018132 2.3048012
0.83868062 0.0082104448 2.3020296
0.9458912 0.0036185759 2.2999995
-0.21197975 0.10292139 2.3000002
0.79647338 -0.10833707 2.4804001
0.84673071 -0.11179024 2.4818072
0.95251644 -0.11495005 2.4747691
1.0363953 -0.11838553 2.4707472
-0.32176572 -0.006678537 2.427696
-0.25085479 -0.018482296 2.4636428
-0.1818718 -0.018101027 2.4519875
0.78309363 -0.073055401 2.4294174
0.84820014 -0.079811551 2.4340582
0.94432694 -0.084176496 2.4281001
1.0295622 -0.087568581 2.4254005
-0.33341119 0.011793884 2.416126
-0.25121155 0.011046965 2.4222577
-0.18353511 0.0076114931 2.417696
0.86081541 -0.14274845 2.5086477
0.94286329 -0.14151426 2.5082278
1.0822206 -0.13272077 2.51
1.1035402 -0.1312094 2.5244
-0.22469209 -0.05304059 2.5068698
-0.1876519 -0.053990755 2.5078855
