# .PCD v0.7 - Point Cloud Data file format
VERSION 0.7
FIELDS x y z
SIZE 4 4 4
TYPE F F F
COUNT 1 1 1
WIDTH 622
HEIGHT 1
VIEWPOINT 0 0 0 1 0 0 0
POINTS 622
DATA ascii
-0.61386269 -0.42625493 1.1305619
-0.56046873 -0.43965235 1.1697105
-0.62245142 -0.34849632 1.1638664
-0.58582699 -0.37416723 1.1848027
-0.64803815 -0.26820377 1.1876119
-0.42267543 -0.50558406 1.2636321
-0.38855073 -0.51177728 1.2892871
-0.5180698 -0.42872861 1.2166564
-0.45909837 -0.45497507 1.2585856
-0.39582461 -0.49411854 1.2941215
-0.60708654 -0.30733243 1.2065339
-0.54495049 -0.3459059 1.2416179
-0.48424739 -0.37361303 1.2832081
-0.62714988 -0.23984179 1.2261008
-0.5712291 -0.25926498 1.2691562
-0.65002912 -0.15327746 1.2574252
-0.59182638 -0.18749706 1.2914146
-0.70685279 -0.028008835 1.2772987
-0.68060994 -0.068381414 1.2793324
-0.71782035 0.014859842 1.2947524
-0.33713952 -0.51918429 1.3361635
-0.27483836 -0.53466469 1.3831699
-0.41768655 -0.42819288 1.3159289
-0.35582328 -0.45450395 1.3546859
-0.29181358 -0.48736501 1.3944699
-0.50398093 -0.30777311 1.3039771
-0.44285956 -0.34541494 1.3381976
-0.38064143 -0.36869606 1.382768
-0.52611798 -0.23955964 1.3232174
-0.46569455 -0.25919288 1.3676172
-0.61347508 -0.12359046 1.3123932
-0.55205262 -0.15211195 1.350526
-0.49101418 -0.18330653 1.3912349
0.17226256 -0.10354604 1.3965431
0.24504155 -0.10480481 1.3951008
0.30573684 -0.10161775 1.3980001
-0.70125204 -0.0013244128 1.302
-0.6388517 -0.042885121 1.3346862
-0.57761025 -0.064604953 1.3803927
0.15816255 -0.051095996 1.3714607
0.24699864 -0.048635591 1.3464059
0.31379351 -0.057702173 1.3871558
-0.71651971 0.060769256 1.3241923
-0.66191989 0.042437978 1.3630725
-0.59843862 0.0046138191 1.3980001
0.18057401 0.031057004 1.381283
0.2398378 0.04633256 1.3633045
0.30346864 0.0073681623 1.3962859
-0.72967631 0.14790599 1.365592
-0.68707097 0.1219901 1.3890357
0.23988892 0.1144232 1.3929929
-0.7547006 0.20760968 1.3807958
-0.10673093 -0.60346442 1.4906001
-0.096541405 -0.6035006 1.4960001
0.5686816 -0.60399222 1.4927799
-0.22903162 -0.53095555 1.4246579
-0.16134788 -0.55279785 1.4702368
0.58793485 -0.59132069 1.4917482
0.6600582 -0.55817747 1.4764308
0.7297982 -0.53721976 1.4524015
-0.31393003 -0.4210487 1.4142659
-0.25206584 -0.45190296 1.4512944
-0.18630661 -0.48429427 1.4890169
0.69002891 -0.49682513 1.4960002
0.75395411 -0.467987 1.4833523
-0.40315023 -0.30282035 1.404
-0.33972389 -0.34337097 1.4355776
-0.2783255 -0.3645345 1.4776484
-0.42363891 -0.23569225 1.4225655
-0.36321187 -0.25833747 1.4640788
-0.29720101 -0.2958369 1.4960002
-0.50945824 -0.11896995 1.4113109
-0.45027184 -0.15042213 1.4485837
-0.38863757 -0.18300468 1.4891757
-0.018501924 -0.12787767 1.4887069
0.050881136 -0.13159688 1.460855
0.14909002 -0.13717377 1.448284
0.2511676 -0.14130481 1.4490992
0.34853083 -0.13657461 1.4557319
0.41477579 -0.1310026 1.4870013
-0.53477305 -0.041798051 1.4324964
-0.47555274 -0.063049957 1.4763449
-0.0090800086 -0.085436292 1.4946496
0.055547062 -0.05356678 1.4529879
0.1121893 -0.033816308 1.4136503
0.35933289 -0.050633896 1.4446542
0.40742901 -0.079086483 1.4898955
-0.62048447 0.070361182 1.4194818
-0.56027842 0.043161381 1.459582
-0.49599463 0.0089561827 1.4960002
0.080672137 0.033284951 1.4799924
0.13986528 0.057040166 1.4369887
0.28294593 0.075149596 1.4186687
0.33017686 0.041890062 1.4557308
-0.71104783 0.18253715 1.4089092
-0.64934486 0.13828421 1.4350368
-0.58312249 0.12077764 1.4839963
0.16460447 0.14112067 1.4645296
0.24421509 0.1536862 1.4372
0.30956608 0.12665313 1.4851428
-0.73038006 0.20127423 1.4056667
0.18869552 0.21593751 1.4909369
0.23744343 0.23689653 1.4767944
0.094214417 0.59873462 1.4960002
0.14858362 0.5975076 1.4949903
0.25371292 0.59565115 1.4927151
0.35225993 0.59376431 1.4905771
0.45140567 0.59251517 1.4876949
0.55240029 0.59130186 1.4846232
0.65358436 0.58805478 1.4796467
0.74886715 0.58341104 1.4715329
0.80502516 0.56805986 1.4924836
-0.82305521 0.62670541 1.4959996
-0.75538337 0.62863636 1.4958942
-0.64559209 0.6269322 1.4952945
-0.54621458 0.62436646 1.4930187
-0.44626388 0.62135971 1.4911677
-0.35015431 0.62000167 1.4902799
-0.24619325 0.61728299 1.4890798
-0.15068719 0.61584455 1.4873595
-0.049444836 0.61354423 1.4858472
0.049852498 0.61104286 1.4831238
0.1501534 0.60936052 1.4794214
0.2498046 0.6088078 1.4754208
0.34921157 0.60784274 1.4705969
0.44717106 0.60687989 1.4671314
0.54607749 0.60488868 1.4618518
0.64524257 0.60366631 1.4576637
0.71696287 0.60161012 1.448
-0.037751146 -0.61237091 1.5431515
0.017030066 -0.62545258 1.5829846
0.29381865 -0.64308989 1.5930003
0.35401744 -0.6214419 1.578271
0.44355172 -0.61279893 1.5430844
0.52549464 -0.60643661 1.5112034
-0.12064747 -0.53352833 1.517809
-0.058960874 -0.55735308 1.556988
0.0032702095 -0.5890947 1.5893139
0.38107768 -0.58351523 1.5867903
0.4562484 -0.55855429 1.5678421
0.54920709 -0.54899299 1.5330222
0.62842971 -0.52511674 1.510006
-0.21175493 -0.41484669 1.5105798
-0.14859867 -0.44856644 1.5445384
-0.084917821 -0.47671574 1.5825794
0.48603776 -0.48593676 1.5898658
0.56019288 -0.46294114 1.5751263
0.6507467 -0.45055366 1.5433606
0.73416585 -0.43215698 1.5160567
-0.23561619 -0.3428545 1.5318757
-0.173981 -0.36457822 1.5729749
0.59300292 -0.39686465 1.5930003
0.66496831 -0.3738111 1.5810776
0.75191569 -0.35139641 1.5554389
0.808079 -0.33389649 1.5387764
-0.32199243 -0.23074038 1.5193627
-0.26069537 -0.25717476 1.5579969
-0.19653569 -0.29382864 1.5930002
-0.015512145 -0.20556828 1.5675257
0.052330043 -0.21346377 1.5725878
0.14997105 -0.21556085 1.5668015
0.25044286 -0.21649164 1.5679386
0.33806318 -0.21346405 1.5584208
0.77675605 -0.27933347 1.5841762
0.82154465 -0.25482145 1.5772617
-0.40896291 -0.11679421 1.5083281
-0.34934855 -0.14916064 1.5435853
-0.28756538 -0.17837697 1.5821718
-0.10918652 -0.1312643 1.5569602
-0.056894924 -0.14869548 1.5296342
0.045535065 -0.18226171 1.5246953
0.14776604 -0.1850747 1.5187552
0.25075656 -0.18727219 1.5197681
0.35426289 -0.18641512 1.5222688
0.44688389 -0.14597091 1.5254591
0.84358406 -0.19740845 1.5930001
-0.43304253 -0.040835068 1.5294853
-0.3738918 -0.06160019 1.5707247
-0.10942702 -0.082649283 1.5870774
-0.04661563 -0.051919084 1.550679
0.012198148 -0.019561162 1.5142809
0.39390472 -0.013896286 1.5091857
0.44469774 -0.056265336 1.5503701
-0.51973826 0.073650643 1.5152881
-0.45744717 0.042610113 1.5544708
-0.39565492 0.0088132964 1.5904074
-0.020643033 0.030633746 1.5769051
0.03808054 0.056755781 1.5355892
0.10150951 0.098339692 1.5020001
0.37432846 0.061867744 1.5346464
0.41366801 0.034919672 1.5720694
-0.54441702 0.11491083 1.5144906
-0.49774855 0.10125322 1.5465001
0.063709646 0.14150077 1.5609275
0.12246834 0.16575569 1.5198218
0.29642728 0.19357514 1.502
0.34501863 0.14897792 1.5464973
0.088981308 0.2161352 1.5827353
0.15139349 0.24944536 1.5452449
0.25503364 0.27003622 1.5181007
0.32084224 0.24029264 1.5660625
-0.87247771 0.38221923 1.5625513
0.17807753 0.33478168 1.5737867
0.24078144 0.34682932 1.5484992
0.30400768 0.31588921 1.5882503
-0.86833131 0.45709625 1.5784583
0.23640095 0.41819242 1.5833075
0.8545537 0.49791482 1.5903752
-0.84086269 0.57808298 1.5725324
-0.7501241 0.58340609 1.5685596
-0.64972824 0.58198482 1.5667684
-0.54943073 0.57998872 1.5633012
-0.4498789 0.5794915 1.558602
-0.34902412 0.57758766 1.5579748
-0.24988633 0.57655573 1.5562264
-0.14917773 0.57471722 1.5528247
-0.050066918 0.57264692 1.5504034
0.049630862 0.57167715 1.5475731
0.14992318 0.56786954 1.5474917
0.24916552 0.56388944 1.5465945
0.34957811 0.55870974 1.5467227
0.45082566 0.55515778 1.5477611
0.55058098 0.55167353 1.5474923
0.64960814 0.54883307 1.5466723
0.75044495 0.54198074 1.5465654
0.82061434 0.52733743 1.5559183
-0.82691818 0.61268699 1.5227419
-0.74929112 0.61401147 1.5209228
-0.65071338 0.61302918 1.5190501
-0.55228651 0.61137265 1.515708
-0.45266619 0.60980833 1.5122242
-0.35032436 0.60808563 1.5104183
-0.25509223 0.60614485 1.5090386
-0.15099731 0.60506189 1.5061088
-0.058077239 0.60347688 1.5036154
0.043941058 0.60225457 1.5024196
0.064777493 -0.62446147 1.6261375
0.15057665 -0.6329779 1.6598026
0.24779901 -0.62586462 1.6246659
0.31733379 -0.6116401 1.6055366
-0.020263573 -0.52392888 1.6117382
0.046245579 -0.5521909 1.6502478
0.16076538 -0.5773195 1.6865405
0.25360119 -0.55380881 1.66434
0.3455002 -0.54474133 1.6273652
0.42310315 -0.51852334 1.6075928
-0.10819968 -0.41017118 1.6043901
-0.045133915 -0.4457542 1.6372681
0.020396369 -0.47111514 1.6797704
0.28247803 -0.48587182 1.6889094
0.35674489 -0.45705116 1.6695111
0.44779453 -0.44757855 1.6345953
0.53074741 -0.42333168 1.610858
-0.13345325 -0.33951432 1.6241307
-0.068019718 -0.36017257 1.6687441
0.38904303 -0.38721773 1.6937889
0.4587605 -0.36416727 1.6762655
0.54982549 -0.35013306 1.6426991
0.63985437 -0.33287343 1.6143732
0.70647913 -0.30696005 1.601934
-0.22005641 -0.22780693 1.6152132
-0.15804529 -0.25554305 1.6549177
-0.091619425 -0.28977987 1.6904997
0.067230187 -0.24712913 1.6274024
0.1489787 -0.26141837 1.6437434
0.23622622 -0.24990991 1.6187031
0.49758753 -0.2968221 1.6960001
0.56382191 -0.27180162 1.6810569
0.6510694 -0.25103018 1.6544172
0.74337023 -0.24265048 1.6202692
0.81388277 -0.21659204 1.6057562
-0.3087036 -0.11370177 1.6045388
-0.24645905 -0.14669769 1.638206
-0.18176256 -0.170799 1.6822882
0.67361158 -0.1759906 1.6871929
0.75286555 -0.15468651 1.6657538
0.8320635 -0.14725086 1.6386509
-0.33107141 -0.040003311 1.6237146
-0.26975685 -0.059575446 1.6694651
-0.11202697 -0.031325582 1.6256728
-0.08676371 -0.020024139 1.6109334
0.47178796 -0.023374604 1.609336
0.78015846 -0.088896818 1.6911676
0.8501209 -0.067822173 1.6771396
-0.40652207 0.044458751 1.6023464
-0.35878506 0.022681961 1.6343451
-0.28841105 0.0063254936 1.6857895
-0.11126518 0.046458948 1.6688765
-0.060596596 0.057329968 1.6308993
0.00036772431 0.0992916 1.6010001
0.45389566 0.055123445 1.6386402
-0.10310183 0.10323068 1.6960001
-0.039710321 0.14289781 1.6632028
0.021145552 0.16721012 1.6177289
0.3863993 0.16721725 1.6129934
0.43010443 0.14282663 1.6604788
-0.015122473 0.22103441 1.6852494
0.048993379 0.25096765 1.6436319
0.11030132 0.28085083 1.6071594
0.36642718 0.25584212 1.6384
0.41220841 0.227118 1.6841094
0.074023589 0.33663553 1.673555
0.13587014 0.35793808 1.6289822
0.29030377 0.3794539 1.6078385
0.33633807 0.34521389 1.6487734
-0.85595745 0.49611101 1.6056362
-0.70403528 0.49766955 1.6960001
-0.64769047 0.49766958 1.6959997
-0.53050703 0.49617514 1.6947532
-0.45142004 0.49558955 1.692413
-0.35042378 0.49555326 1.6904039
-0.24492542 0.4941372 1.6888336
-0.14892875 0.49260104 1.6878604
-0.049882136 0.49049753 1.6825346
0.052108835 0.48781663 1.6810151
0.15668041 0.45546946 1.661653
0.24890374 0.4625437 1.6338419
0.34679735 0.47600067 1.6699433
0.45087498 0.47963312 1.6670201
0.55078655 0.47805777 1.6635005
0.64998138 0.47541597 1.6617957
0.75093079 0.47526553 1.6563455
0.84627587 0.47121561 1.6551856
0.90343851 0.44844934 1.6858182
-0.9126547 0.5390687 1.6340374
-0.84687775 0.5373708 1.638268
-0.74970251 0.53641099 1.6475476
-0.65124959 0.5328458 1.6462469
-0.55099678 0.52983081 1.6434941
-0.44984734 0.52965641 1.6414255
-0.35046354 0.52735335 1.6399342
-0.25015348 0.52695912 1.6379325
-0.15105318 0.52484971 1.6371027
-0.050567307 0.52288169 1.6325337
0.049007732 0.52160949 1.6284801
0.14956023 0.51927358 1.6252789
0.24985917 0.51676977 1.6219897
0.34898627 0.51401395 1.6182737
0.44755638 0.51191992 1.6176376
0.54698485 0.50974363 1.6118499
0.65058649 0.50940716 1.6111982
0.74521607 0.50764781 1.6050707
0.82196838 0.50281841 1.602167
0.087071247 -0.51497501 1.7075635
0.1462383 -0.5354051 1.7190764
0.21482398 -0.51316679 1.7060878
-0.0051264009 -0.40306002 1.7040002
0.05998579 -0.44239932 1.7289701
0.15207219 -0.45446163 1.762637
0.24645534 -0.44619656 1.7293477
0.3214277 -0.41970906 1.7087812
-0.026493534 -0.33718041 1.7195708
0.038407382 -0.35832527 1.7611568
0.18254568 -0.38962263 1.7891688
0.25977868 -0.36331448 1.7717702
0.34906143 -0.34904164 1.7409931
0.43452373 -0.32213762 1.7131348
-0.11600538 -0.22418672 1.7116925
-0.055097792 -0.25895342 1.7412379
0.011106385 -0.27913326 1.7823515
0.14557038 -0.29356268 1.7040001
0.36333719 -0.28356534 1.7732719
0.45632762 -0.26511374 1.7374812
0.53973466 -0.23344968 1.7173809
0.60946846 -0.20409963 1.7046204
-0.20539606 -0.10201149 1.7050003
-0.15591678 -0.1422548 1.7220135
0.57608372 -0.15558445 1.7468811
0.64047891 -0.14007038 1.7237325
0.71901822 -0.11128075 1.7078974
-0.22789554 -0.044755843 1.7184911
-0.16914387 -0.070179351 1.7565151
0.58304089 -0.088385396 1.7783736
0.65435904 -0.082065485 1.7498144
0.74796903 -0.067319565 1.7193152
0.84824598 -0.025802189 1.7156332
0.90441972 -0.0071105268 1.713227
-0.11718117 0.096150398 1.7040002
0.48595625 0.099793866 1.7040001
0.87190139 0.047452509 1.7622968
0.91502428 0.059424333 1.7473787
-0.11089378 0.14603588 1.7304438
-0.081447639 0.17066453 1.7194023
0.46791133 0.16161875 1.7193109
0.88506323 0.11229964 1.7906424
0.92799479 0.129393 1.7846328
-0.10952362 0.2325121 1.7787489
-0.053244457 0.25256205 1.7429413
0.0057454375 0.28714803 1.706841
0.396936 0.29549122 1.7040001
0.44563606 0.25364256 1.7443401
-0.029876677 0.32986701 1.7694839
0.032237168 0.35776564 1.728054
0.38238576 0.3593559 1.7238976
0.42859533 0.34262842 1.7678819
0.54851633 0.39572212 1.7906061
0.65635937 0.39337268 1.7897102
0.7507202 0.39307943 1.7857735
0.84958059 0.39165971 1.7841164
0.93133014 0.38885656 1.7835277
-0.93289936 0.47092062 1.7696391
-0.84888792 0.47409797 1.7539986
-0.74896485 0.46995401 1.7492378
-0.64948517 0.46843246 1.748404
-0.55009061 0.46623024 1.7448565
-0.44871938 0.46373954 1.7460026
-0.34938526 0.46216869 1.7460263
-0.25055096 0.45944417 1.7483633
-0.14996848 0.45686361 1.7466019
-0.05070876 0.45229539 1.7477978
0.048407815 0.44562045 1.7431892
0.12288287 0.45692214 1.7161026
0.36530223 0.44015566 1.7316543
0.45029914 0.43118891 1.7457628
0.54877585 0.42786601 1.7408957
0.64899945 0.42489403 1.7400985
0.74962825 0.42454663 1.7377535
0.84839898 0.42343158 1.7350497
0.91456437 0.41631743 1.7362249
-0.90300286 0.5057953 1.7073752
-0.85015666 0.50343084 1.7048483
-0.76671636 0.50253111 1.704474
-0.65613723 0.50071776 1.7040002
-0.59111494 0.50001711 1.7040001
0.13785063 -0.41121414 1.8075871
0.077332273 -0.32837811 1.8136393
0.14594536 -0.35993186 1.8221878
0.2339197 -0.32921794 1.8099823
0.040875241 -0.28746012 1.8108195
0.28714234 -0.29533434 1.8068892
0.31476623 -0.28761232 1.8064053
-0.13970648 -0.040756423 1.8030001
0.86772031 -0.0034097396 1.8130001
0.85889 0.060702071 1.8275161
0.86778426 0.15336239 1.8329082
0.92610556 0.17658854 1.8122079
-0.10732077 0.28192317 1.8090863
-0.091847338 0.2891579 1.8074447
0.47846788 0.28709263 1.8064117
0.50477082 0.28421223 1.8720001
0.87250161 0.23005001 1.8694338
0.9433468 0.24595147 1.8511781
1.0015014 0.29873136 1.8820001
-1.0329018 0.39592788 1.8917377
-0.94345552 0.39328706 1.8877507
-0.85006213 0.39083672 1.8846731
-0.74566233 0.38684866 1.8798455
-0.65211558 0.38692594 1.8794384
-0.54981625 0.38529196 1.8745192
-0.44932386 0.38399816 1.8718632
-0.34774366 0.38200971 1.8719145
-0.24869037 0.3800047 1.8739843
-0.14338885 0.37291893 1.8673683
-0.065842189 0.36546099 1.8352123
0.0038741434 0.39507183 1.8041112
0.46648172 0.36932337 1.8304459
0.54938573 0.36151561 1.8473544
0.65014356 0.35764697 1.8484235
0.7497915 0.35452828 1.8465955
0.84984714 0.35337988 1.84636
0.94376194 0.34471512 1.8514695
1.0053463 0.31818521 1.8887228
-1.0207645 0.4155775 1.8631991
-0.94986504 0.42642662 1.8354594
-0.85004616 0.42289281 1.8328983
-0.75166571 0.42057374 1.8281111
-0.64989781 0.41933513 1.826553
-0.54880297 0.41944414 1.8231566
-0.45129794 0.41677293 1.8213345
-0.34967035 0.41626677 1.8246189
-0.25030234 0.41390479 1.8204311
-0.15110186 0.41341037 1.8184236
-0.05192937 0.41091356 1.8146942
0.0061639547 0.41186416 1.8047955
0.44390687 0.40140194 1.8030002
0.88934469 0.085122995 1.9340357
0.90877092 0.051651768 1.9664006
0.88089764 0.16662493 1.959869
0.901914 0.10861464 1.9832001
-0.50697124 0.29727066 1.9920003
-0.47999516 0.29589689 1.9898714
-0.36133632 0.29899076 1.9920002
-0.27131787 0.29899076 1.9920001
0.56776869 0.28513736 1.9674784
0.65053535 0.28052226 1.9680665
0.75022697 0.27935281 1.9626116
0.85004276 0.27578899 1.9504435
0.9246968 0.29200029 1.9165295
-1.1060196 0.34199181 1.9864289
-1.0450689 0.36235115 1.9530123
-0.95009559 0.35627764 1.9462148
-0.85011387 0.34968713 1.9463018
-0.75046694 0.34339613 1.9501332
-0.65091437 0.34312189 1.9489833
-0.55001169 0.33746067 1.9509186
-0.45111543 0.33747974 1.9498024
-0.35208106 0.33572441 1.9512956
-0.25036451 0.33295834 1.9451977
-0.16264921 0.33391318 1.9414843
0.55715191 0.3154476 1.9202799
0.64765334 0.31259021 1.9192997
0.74833679 0.31056073 1.9135129
0.8491329 0.31114474 1.9144889
0.93591189 0.30845204 1.9106529
0.91696674 0.080615506 2.0240002
-0.76093489 0.19404022 2.0067694
0.66179246 0.19757031 2.0900002
0.75077313 0.19788419 2.0900002
0.86235851 0.19256896 2.0727036
0.91252232 0.16717918 2.0654421
-1.0133617 0.28997284 2.0423946
-0.94433528 0.27980202 2.0613101
-0.84967756 0.27441931 2.0570476
-0.75415838 0.26694176 2.0459743
-0.64854681 0.27530253 2.0578382
-0.55079603 0.27395788 2.0543356
-0.44925568 0.27118289 2.0543334
-0.34935182 0.26925457 2.0410876
-0.25107437 0.27157113 2.0512691
-0.16739534 0.27529785 2.0509126
0.57941806 0.24362355 2.032836
0.65134484 0.23233248 2.0485628
0.75050682 0.22947995 2.0456593
0.84933788 0.2264131 2.0415411
0.90112454 0.20911731 2.046818
-1.1084598 0.32493719 2.0054553
-1.0478483 0.31972635 2.0189457
-0.9506951 0.31249234 2.0194969
-0.8508653 0.30880928 2.0142856
-0.75432384 0.30566177 2.0123572
-0.6551559 0.30523953 2.015312
-0.57050359 0.30205604 2.0081258
-0.42573243 0.30439591 2.007143
-0.33582905 0.30399123 2.0063996
-0.23854874 0.30482394 2.0084994
-0.16162869 0.30193228 2.0053854
-0.45405623 0.089030847 2.1933699
-0.73725218 0.19473466 2.1909754
-0.64446723 0.18948708 2.1854522
-0.55029452 0.18940666 2.190712
-0.45103043 0.19002658 2.1827331
-0.35186291 0.18867041 2.1857212
-0.2470527 0.18842162 2.1877224
-0.17533243 0.18340221 2.1785929
0.59787464 0.19515327 2.1092219
0.6555618 0.16838469 2.1436903
0.75082678 0.16499159 2.1460452
0.85086209 0.1589247 2.14884
0.92771858 0.14907368 2.1547527
-0.91832757 0.24842797 2.1109779
-0.86525935 0.23738748 2.1237314
-0.7480281 0.22672142 2.141448
-0.65255553 0.22627415 2.138217
-0.55086511 0.22569378 2.1392598
-0.44926512 0.22170037 2.1337171
-0.34873688 0.2208619 2.1356184
-0.24793865 0.22219549 2.1349115
-0.17339601 0.22547305 2.1259015
0.59292585 0.2036922 2.102
0.61035061 0.20417625 2.102
-0.5061121 0.093497902 2.2800002
-0.4717741 0.09096349 2.2258327
0.68757182 0.090012431 2.2700005
0.75344884 0.086792588 2.2694774
0.85486734 0.082225546 2.2669055
0.94974905 0.080029987 2.2648897
1.0034239 0.064870805 2.2704842
-0.80262059 0.19661595 2.2145002
-0.74057442 0.17618388 2.2225549
-0.64757705 0.1537426 2.2455153
-0.54955912 0.14708816 2.2534206
-0.44798592 0.14351091 2.2322392
-0.3522484 0.1508815 2.2515306
-0.25221807 0.1521467 2.2456412
-0.18189944 0.14567506 2.2429328
0.67784393 0.11836105 2.2278087
0.74817461 0.11527816 2.2238777
0.84725875 0.11170622 2.2244074
0.94371486 0.10963259 2.2219079
-0.80899489 0.20203583 2.2110002
0.87010467 -0.0018012952 2.3963459
0.94306278 -0.0016228008 2.3964851
1.0371161 -0.0037271797 2.390187
-0.54541141 0.096768722 2.3061941
-0.44518402 0.072980754 2.3763032
-0.35131982 0.079564005 2.3694105
-0.25069863 0.079573743 2.3721702
-0.1869459 0.079519108 2.3615713
0.69236922 0.072588213 2.3065455
0.75203556 0.043167755 2.3424432
0.84888524 0.03590361 2.3442612
0.94995987 0.031721234 2.3398447
1.020833 0.022601038 2.3524187
-0.61212331 0.11675233 2.300941
-0.55844587 0.10913321 2.3028367
-0.42003044 0.10626114 2.3163207
-0.34621838 0.11102861 2.3091691
-0.25079271 0.1125716 2.3146446
-0.19130468 0.11041082 2.3143446
-0.33176914 -0.0045455266 2.4840009
-0.26846632 -0.00099465903 2.484
-0.19247414 -0.00038181886 2.4840002
0.77120429 -0.019903373 2.4422867
0.84925407 -0.029021759 2.4516122
0.9534238 -0.033978511 2.4502962
1.0343008 -0.038795117 2.4484584
-0.41992438 0.041006178 2.4215562
-0.34844312 0.033154391 2.4441493
-0.25026315 0.032492734 2.440659
-0.19483086 0.037162945 2.4289031
0.7562536 0.0040758653 2.414
0.81767678 0.0037979318 2.4139998
0.83952713 -0.10175303 2.5449378
-0.31945255 -0.012454242 2.5027914
-0.25029111 -0.02113477 2.5246077
-0.19674952 -0.0068660378 2.5020001
0.78870082 -0.061280366 2.5047557
0.85100305 -0.078085996 2.5193074
0.93734717 -0.076287694 2.5087495
1.0030391 -0.073841035 2.5020001
1.1089029 -0.052236199 2.5020001
-0.25436246 0.0039363829 2.5020003
