# .PCD v0.7 - Point Cloud Data file format
VERSION 0.7
FIELDS x y z
SIZE 4 4 4
TYPE F F F
COUNT 1 1 1
WIDTH 627
HEIGHT 1
VIEWPOINT 0 0 0 1 0 0 0
POINTS 627
DATA ascii
-0.61251998 -0.42482448 1.1249253
-0.55765665 -0.43836215 1.1662681
-0.49896008 -0.47936687 1.1970001
-0.62079734 -0.3468987 1.1588989
-0.58243424 -0.36997998 1.1818202
-0.64374369 -0.2637507 1.1855378
-0.66812801 -0.19794858 1.197
-0.42072573 -0.50494957 1.2592288
-0.38473111 -0.5110991 1.2869437
-0.51588565 -0.42554155 1.2139001
-0.45637384 -0.45331335 1.2548473
-0.39297652 -0.48956719 1.2927063
-0.60473669 -0.30468425 1.2040001
-0.54147619 -0.34415329 1.238618
-0.48091248 -0.36818519 1.2813224
-0.62368542 -0.23770231 1.223117
-0.56657147 -0.25807416 1.2659498
-0.64652705 -0.15177339 1.2532468
-0.58887058 -0.18331954 1.2875067
-0.706213 -0.020892607 1.274738
-0.67695326 -0.064608 1.2769147
-0.71457916 0.021353394 1.2923726
-0.6976614 0.004559496 1.296375
-0.33345395 -0.51825225 1.332545
-0.27012444 -0.53289568 1.3807313
-0.41471657 -0.42439681 1.3131537
-0.35248849 -0.45183116 1.3515984
-0.28861737 -0.48329094 1.3919157
-0.43882358 -0.34352776 1.3339771
-0.37686563 -0.36423758 1.3792403
-0.52212948 -0.23621434 1.3198723
-0.46232507 -0.25774363 1.3631068
-0.39724246 -0.29878995 1.3980001
-0.6106028 -0.11892766 1.309207
-0.54876709 -0.14929926 1.3461986
-0.48676369 -0.17875455 1.3880863
0.18690954 -0.10247519 1.397143
0.24547428 -0.10386772 1.3966031
0.30728891 -0.10196265 1.398
-0.63440889 -0.041231602 1.3295338
-0.57311928 -0.061220109 1.3763818
0.16648847 -0.051066943 1.376273
0.24778564 -0.048209008 1.346282
0.31958324 -0.054183096 1.3814756
-0.71515268 0.066920035 1.320116
-0.65793544 0.044388112 1.3579556
-0.59429669 0.010272219 1.3961734
0.1842633 0.024549611 1.3871986
0.24482709 0.047418877 1.3622344
0.30855924 0.022150766 1.3894796
-0.7267946 0.15098907 1.3599056
-0.68284196 0.12425666 1.3840191
0.25133047 0.11536395 1.3923167
-0.74354655 0.21054083 1.3778903
-0.10309676 -0.60205287 1.485
-0.092566177 -0.60326248 1.4945002
0.57874036 -0.60444951 1.4944439
0.60336137 -0.60196251 1.4890001
-0.22444193 -0.52929419 1.4221847
-0.15780212 -0.55090714 1.4672818
-0.094529316 -0.59685367 1.4955335
0.59250522 -0.59368396 1.494185
0.66062564 -0.56169778 1.478377
0.73075545 -0.53803402 1.4565461
-0.30994391 -0.41441518 1.4111884
-0.24932182 -0.44926214 1.4467095
-0.18363251 -0.47851634 1.4870634
0.69791567 -0.4988648 1.4960001
0.75737578 -0.46988174 1.4850012
-0.3349089 -0.34226331 1.4318311
-0.27347398 -0.36238149 1.4740808
-0.42022151 -0.23266919 1.4191
-0.36034966 -0.25695857 1.4588581
-0.29558152 -0.29257131 1.493806
-0.50566554 -0.11169472 1.4071044
-0.44680846 -0.14713088 1.4429667
-0.38529289 -0.17512128 1.4844673
-0.010341423 -0.12339111 1.4935741
0.051143456 -0.12954317 1.4687684
0.15052512 -0.13445804 1.4505104
0.25066644 -0.13881978 1.4491075
0.34891739 -0.13603321 1.4527853
0.42099705 -0.13183592 1.4815828
-0.52936268 -0.04009087 1.4279182
-0.47129366 -0.060833439 1.4706738
-0.0037163361 -0.095823161 1.4960002
0.060208496 -0.056855381 1.4608288
0.11891947 -0.043358475 1.4165297
0.36787993 -0.0496758 1.4363425
0.41331837 -0.067408405 1.4830062
-0.61670941 0.077413827 1.4169986
-0.55591065 0.045776073 1.4533919
-0.49281725 0.01185925 1.4924178
0.085361831 0.025467925 1.4847559
0.14518785 0.054357983 1.4430897
0.25042659 0.090646617 1.4097314
0.34059504 0.047348801 1.4500519
-0.70476115 0.18765278 1.4062735
-0.64627957 0.14539161 1.431167
-0.57456732 0.12246334 1.4801606
0.17102006 0.13878372 1.4690621
0.24379843 0.15476528 1.4327993
0.31803972 0.13756409 1.4784635
-0.7121309 0.20546436 1.4081924
0.19333011 0.21098915 1.4933822
0.24775608 0.23801175 1.4758084
0.30212492 0.20666328 1.4951252
0.25735033 0.30512691 1.4960002
0.2635479 0.59916526 1.4960002
0.35681948 0.59782392 1.4954174
0.45253563 0.59567952 1.4927235
0.55453986 0.59412813 1.4902683
0.65358776 0.59246087 1.4840785
0.75119233 0.58637363 1.475395
0.80426943 0.57358199 1.4892855
-0.52498841 0.62930721 1.4959998
-0.43598786 0.62782288 1.4960008
-0.34521529 0.6257574 1.494928
-0.25066325 0.62550926 1.4939449
-0.14832173 0.62234336 1.4926217
-0.047114253 0.61933494 1.4900887
0.050998773 0.61760181 1.4884305
0.15017617 0.61363077 1.4867024
0.25052455 0.61131126 1.4840801
0.34962893 0.60984272 1.4810141
0.44835895 0.60831457 1.4756242
0.5467028 0.6062808 1.4716893
0.64660722 0.60523492 1.4651499
0.72712654 0.60260701 1.4571352
-0.033692587 -0.6117869 1.5389024
0.02114973 -0.62296814 1.5804985
0.29656979 -0.64584094 1.5930001
0.35860556 -0.62230021 1.5813545
0.4446722 -0.61350465 1.546918
0.53218669 -0.60695356 1.5129877
-0.11752385 -0.52928889 1.5135993
-0.056082219 -0.55480134 1.5525042
0.006462248 -0.58753192 1.5872798
0.38318476 -0.5890094 1.5882808
0.45829135 -0.56076974 1.571209
0.54990613 -0.55017966 1.5361488
0.63271666 -0.52650195 1.512313
-0.20840089 -0.41168347 1.5069036
-0.14488788 -0.44640929 1.5398098
-0.081221022 -0.47202441 1.5787021
0.49203816 -0.49056798 1.5914729
0.56250697 -0.46560144 1.5774181
0.65156341 -0.45083115 1.5472687
0.73589444 -0.43525755 1.5180918
-0.23081011 -0.34044155 1.5269345
-0.16942789 -0.36090422 1.5691335
0.66921324 -0.37597135 1.5820116
0.75275677 -0.35218245 1.5581803
0.8086673 -0.33410412 1.5418656
-0.31871566 -0.2270738 1.5150268
-0.25624588 -0.25459129 1.553899
-0.19051126 -0.28781381 1.5886154
-0.0096067712 -0.20677345 1.5759691
0.049943339 -0.21144907 1.5746355
0.1506428 -0.21414068 1.5703868
0.25017193 -0.21433903 1.5679258
0.34085783 -0.21421327 1.5625894
0.4009015 -0.20383537 1.536
0.77791822 -0.28131184 1.5855405
0.82244241 -0.25776792 1.5785735
-0.4059993 -0.1087518 1.5040485
-0.34429878 -0.14559479 1.5377725
-0.28287908 -0.17089164 1.578402
-0.10137861 -0.12116122 1.5709996
-0.049538128 -0.14328501 1.5343647
0.046213645 -0.18009463 1.5282316
0.14582142 -0.18400051 1.523603
0.25085229 -0.18537425 1.5205727
0.35414985 -0.1856852 1.5229703
0.4546459 -0.14985345 1.5254014
0.50183713 -0.10796329 1.554
-0.42880011 -0.038183082 1.5229225
-0.36864498 -0.058822561 1.5660686
-0.10067423 -0.093079954 1.5812
-0.040845919 -0.056938916 1.55682
0.019054377 -0.027670939 1.5182891
0.39895049 -0.0010955285 1.5020002
0.45766935 -0.051896513 1.5478837
0.50506449 -0.081527799 1.5664392
-0.51574439 0.077984139 1.510643
-0.45378879 0.047117546 1.5496233
-0.39018369 0.015738944 1.5888104
-0.015375524 0.022350866 1.5829726
0.044755306 0.053956613 1.5420965
0.10640214 0.090093262 1.5066049
0.38280663 0.064164892 1.5210106
0.42150947 0.042455588 1.5616767
-0.52823651 0.11335859 1.5187052
-0.49008498 0.10418576 1.5432117
0.07103581 0.13946089 1.5672983
0.12776551 0.16060995 1.524163
0.36061382 0.1533632 1.5441079
0.4059718 0.11861759 1.5879993
0.092557274 0.21132207 1.58875
0.15599015 0.2465401 1.5505019
0.23745708 0.27541369 1.5129502
0.33073267 0.2445384 1.5550264
-0.86497021 0.36961311 1.5619501
0.18205349 0.32936206 1.5773742
0.2448447 0.34893706 1.5461309
0.31137687 0.32923129 1.5752956
-0.85736543 0.44963548 1.5811911
0.25313628 0.42318746 1.5817175
-0.8413561 0.58704829 1.5802941
-0.74694777 0.58967006 1.5798527
-0.64986539 0.587578 1.5754775
-0.54906678 0.5867067 1.5719894
-0.44960168 0.58411181 1.5689131
-0.35040194 0.58338219 1.5684652
-0.24950466 0.58120894 1.5639192
-0.14953546 0.58040327 1.5609815
-0.049984638 0.57713664 1.5592422
0.049789812 0.57647663 1.554981
0.14994925 0.57477748 1.5515466
0.25014585 0.5712198 1.5477288
0.34974569 0.56711257 1.5459355
0.4502959 0.56247139 1.5487169
0.54995233 0.55912858 1.5464423
0.6495263 0.55620921 1.545774
0.7497372 0.54879242 1.5461177
0.82177991 0.53328389 1.5574458
-0.83051753 0.61720175 1.537935
-0.75174832 0.61864394 1.5348794
-0.65066284 0.61737007 1.5294383
-0.55118537 0.61636376 1.5255332
-0.45107415 0.61446548 1.5215089
-0.35109904 0.6124053 1.5195739
-0.25080943 0.61185271 1.5170316
-0.15178613 0.60926336 1.5123335
-0.055331741 0.60785651 1.5110729
0.046885975 0.60645103 1.5092372
0.14884271 0.60307699 1.5041679
0.22978961 0.6022138 1.5031049
0.070116498 -0.62356812 1.6219971
0.15169582 -0.63320529 1.6599979
0.24851312 -0.62718511 1.6292299
0.31797847 -0.61508179 1.6069825
-0.016105495 -0.51937693 1.6088157
0.048767835 -0.55040324 1.6452178
0.15057442 -0.58043182 1.6859242
0.255768 -0.55574453 1.6677412
0.34759864 -0.54693693 1.6303164
0.42608571 -0.52275604 1.6094699
-0.10511246 -0.405696 1.6031001
-0.041807447 -0.44404465 1.6318815
0.024661474 -0.46396488 1.6767422
0.28812304 -0.48826286 1.693838
0.35761178 -0.45922065 1.6734982
0.44942546 -0.44957745 1.6380714
0.53302175 -0.4273586 1.6127877
0.60035878 -0.40116179 1.6010001
-0.12720028 -0.33743432 1.6204766
-0.061838198 -0.35899612 1.6643788
0.00038954429 -0.39274687 1.6960001
0.39628994 -0.39722633 1.6935456
0.46111619 -0.36793256 1.6787983
0.5500741 -0.35039592 1.6477183
0.6404081 -0.3369154 1.6163961
0.70999277 -0.30853957 1.6031619
-0.21518326 -0.22016767 1.6134315
-0.15227002 -0.25145149 1.6509664
-0.088454604 -0.28065699 1.6893095
0.074287713 -0.24174041 1.6249279
0.15118527 -0.25904548 1.644731
0.24088822 -0.24882902 1.6206722
0.31050131 -0.23780018 1.601
0.56564498 -0.27342558 1.6833998
0.65154314 -0.2515794 1.6585199
0.74418271 -0.24359955 1.6226572
0.81549633 -0.21967879 1.6063741
-0.30488679 -0.1050506 1.6023124
-0.24154222 -0.14403231 1.6321819
-0.17698362 -0.16358505 1.6775874
0.67688012 -0.18101321 1.6882451
0.75363833 -0.15522014 1.6682651
0.83267361 -0.14751068 1.6407251
-0.32499868 -0.036924385 1.6179274
-0.26310381 -0.057298351 1.6634547
-0.10762586 -0.029633347 1.6330612
-0.080402769 -0.025628382 1.6135008
0.4816089 -0.010488228 1.6115457
0.78066534 -0.089523084 1.6921518
0.8503778 -0.068299912 1.6781498
0.90252197 -0.023692705 1.6960001
-0.40598872 0.0622348 1.6016184
-0.35420978 0.029117787 1.6297801
-0.28096396 0.012500934 1.680492
-0.10224433 0.044151325 1.6734148
-0.055188172 0.054471411 1.6400688
0.0041915951 0.08929459 1.6024419
0.46886531 0.055807471 1.6330085
0.50203633 0.036915209 1.6608182
-0.030481689 0.14116049 1.6683758
0.027328065 0.16068041 1.6234374
0.3935152 0.18442649 1.6034578
0.44337758 0.14477153 1.6514084
-0.010779876 0.21413493 1.6927567
0.053719006 0.24696374 1.6508224
0.11371445 0.27503908 1.6104103
0.37758359 0.25977913 1.6268739
0.41812265 0.23911685 1.6704185
0.078866109 0.33414137 1.6800286
0.14089687 0.35616016 1.634456
0.23035388 0.39424533 1.6019547
0.35273099 0.35187075 1.6449851
0.40453282 0.31217599 1.6926873
-0.85295069 0.4939473 1.6048465
-0.37159362 0.49766955 1.6960001
-0.2682417 0.49766952 1.6960001
-0.14431708 0.49711168 1.6959995
-0.046165232 0.49490076 1.6911378
0.050006941 0.49393076 1.6893893
0.16069715 0.45283175 1.6682278
0.24012199 0.46129671 1.6289004
0.34554935 0.4714148 1.668076
0.44887018 0.48354465 1.6717762
0.55065817 0.48060131 1.6692077
0.65115744 0.47819445 1.6670668
0.75272059 0.47710669 1.6637692
0.84735709 0.47429106 1.6585597
0.90352136 0.4525933 1.6895264
-0.91891271 0.54332238 1.6580459
-0.84392148 0.5489071 1.633491
-0.75041044 0.54936749 1.64702
-0.65047193 0.5446974 1.647862
-0.55029339 0.54054552 1.6452514
-0.44979787 0.53658777 1.6473247
-0.35044569 0.53475684 1.6459098
-0.2506986 0.53234297 1.6460879
-0.1504575 0.52993762 1.6445962
-0.050886109 0.5266735 1.6410075
0.04942508 0.5267511 1.6363779
0.14963818 0.52425086 1.631722
0.24882266 0.52162212 1.6274515
0.34870294 0.51867217 1.6239545
0.44865707 0.51557368 1.6226308
0.54871255 0.51393765 1.6174018
0.6482684 0.51299918 1.6157516
0.74598986 0.51049703 1.6120659
0.82631838 0.50501347 1.606325
0.090067632 -0.50959218 1.7055005
0.15185504 -0.53771073 1.719032
0.21953392 -0.51701719 1.707563
0.066535905 -0.44035336 1.7242181
0.15145987 -0.45461482 1.7632545
0.24798906 -0.44794473 1.7332062
0.32654384 -0.42054111 1.7106738
-0.023084542 -0.32865372 1.7154956
0.043885574 -0.35493752 1.7563096
0.15505247 -0.39039212 1.7909786
0.26108706 -0.36672252 1.7744695
0.35076025 -0.35065025 1.7446142
0.4351899 -0.32750297 1.7133706
0.50140601 -0.30263638 1.7040001
-0.11224382 -0.21370104 1.7071092
-0.05194075 -0.25383124 1.734328
0.015228877 -0.27853489 1.7787707
0.14017521 -0.29160082 1.7040001
0.36643416 -0.28507274 1.7758698
0.4562223 -0.26775077 1.7401444
0.54178429 -0.2369118 1.7186631
0.61485136 -0.2045918 1.7049376
-0.13970557 -0.14276452 1.7221702
-0.089740664 -0.19401766 1.7384
0.58084261 -0.16191922 1.7432505
0.64286184 -0.14245147 1.7251449
0.71791041 -0.11429546 1.7086551
-0.22133236 -0.034768213 1.7151891
-0.16135626 -0.064158581 1.7497982
0.59356612 -0.091951229 1.7746249
0.65458232 -0.082230754 1.7538936
0.74927223 -0.068063997 1.7224699
0.8517617 -0.027929781 1.7174482
0.90468067 -0.0073723239 1.7116818
-0.25489804 0.0056237108 1.7040001
-0.10260723 0.09243682 1.7040001
-0.09708944 0.097218901 1.7040002
0.88095611 0.046452206 1.7613935
0.91545731 0.059486162 1.7471231
-0.10173104 0.1428815 1.7339641
-0.074452765 0.1607745 1.7219869
0.48276868 0.17154261 1.7165551
0.88565016 0.11345451 1.7900922
0.92855591 0.13217615 1.7847139
-0.1002408 0.2010214 1.766
-0.048977248 0.24931364 1.7514393
0.013603399 0.28218254 1.7125453
0.46558428 0.25392801 1.7415559
0.5010711 0.20909998 1.7570001
-0.024296537 0.32687846 1.7764249
0.037250783 0.35455349 1.7338635
0.10044717 0.39996126 1.7040001
0.39192426 0.37422666 1.7128183
0.43484628 0.33501378 1.7517529
0.56351858 0.39851311 1.7939997
0.6603837 0.39679369 1.7939992
0.74998987 0.39600393 1.79179
0.84888798 0.39391822 1.7875112
0.93146831 0.39184606 1.785086
-0.92556238 0.4809961 1.7830734
-0.8482163 0.47974181 1.7659457
-0.74829268 0.47649884 1.7598221
-0.64959526 0.47624138 1.7549933
-0.54902685 0.4742488 1.7511021
-0.45000729 0.47215781 1.7518842
-0.34999666 0.47129214 1.750271
-0.24995539 0.4699811 1.7497295
-0.15111949 0.46753928 1.746212
-0.051252235 0.46210265 1.7485657
0.051272754 0.45339024 1.7466949
0.1286429 0.46102154 1.7196518
0.37127155 0.44891721 1.7254592
0.45180669 0.43795243 1.7457865
0.5490284 0.43176618 1.7451265
0.64939594 0.42860323 1.7449546
0.74890929 0.42756903 1.7420768
0.84916246 0.42569456 1.7389832
0.91534972 0.41719967 1.7415688
-0.94973207 0.51049304 1.7304038
-0.84425938 0.50906187 1.7172823
-0.75284809 0.50894886 1.7115905
-0.6527456 0.50623989 1.7084649
-0.55233926 0.5040195 1.7048098
-0.45103371 0.50181127 1.7041259
-0.34480566 0.50193238 1.7040007
-0.24502176 0.50055218 1.7039996
0.14672978 -0.41315153 1.8070716
0.083660476 -0.3181991 1.8110539
0.14840484 -0.35835499 1.8201452
0.23883806 -0.3318629 1.8101588
0.30348977 -0.3033528 1.8030001
0.050528031 -0.28219172 1.8114045
0.28864679 -0.29646164 1.8108751
0.32099006 -0.28738591 1.8070165
0.89917976 -0.0002846733 1.8520001
0.90704191 -0.0046026031 1.8749332
0.87770408 0.055479299 1.8213264
0.90843165 0.019283365 1.8899999
0.87951744 0.1549695 1.8350751
0.92479765 0.17795521 1.8127755
-0.082083248 0.28911671 1.8070543
0.88071144 0.23261443 1.8686049
0.94266039 0.24610807 1.8493966
-0.92819613 0.39820984 1.893
-0.85518885 0.39692691 1.8901725
-0.74310791 0.39361796 1.8908784
-0.64934552 0.39348891 1.8893176
-0.54825056 0.39205328 1.8868784
-0.44959152 0.3912926 1.8833482
-0.34735015 0.38834 1.8818592
-0.24641453 0.38637495 1.8820928
-0.15154582 0.3858045 1.8746655
-0.06175923 0.36331326 1.8442532
0.0070066005 0.39372015 1.8106111
0.47411311 0.37378526 1.8256004
0.54980421 0.36775923 1.8474127
0.65019685 0.36360374 1.8488594
0.7498737 0.36025372 1.8474851
0.84929633 0.35855246 1.8471768
0.9431479 0.34959891 1.8519604
1.0049316 0.32133219 1.8906434
-1.0143951 0.41741782 1.8810354
-0.94472104 0.43461874 1.847
-0.84987879 0.43024367 1.8423114
-0.75155663 0.42674911 1.840286
-0.64963788 0.42610741 1.8371767
-0.54962134 0.42381567 1.8338751
-0.45096436 0.42221203 1.8321253
-0.34957346 0.42203078 1.8327006
-0.25160706 0.42041939 1.8300741
-0.14931193 0.41945443 1.8245203
-0.050749961 0.41655737 1.8225225
0.016570199 0.41676009 1.8095007
0.46280664 0.40373296 1.805056
0.52832139 0.40140197 1.803
0.60448956 0.40140191 1.8030001
0.91079515 -0.00029251259 1.9030001
0.92022574 0.05633609 1.948972
0.8872841 0.16218141 1.9146472
0.91526389 0.13199314 1.9696088
0.58059078 0.28730488 1.9706645
0.65012956 0.28483802 1.9714435
0.74944526 0.28200784 1.9682043
0.85588759 0.27906913 1.959614
0.92418653 0.29025653 1.9210939
-1.1065003 0.35789195 1.9878277
-1.0445108 0.37342808 1.9580631
-0.94872922 0.36822882 1.9497238
-0.84925801 0.3632158 1.9459025
-0.75148576 0.35773686 1.9497555
-0.65158594 0.35697135 1.9491833
-0.55004764 0.35144117 1.9496617
-0.45120481 0.349527 1.9495288
-0.35241982 0.34867105 1.9502442
-0.2508637 0.34507239 1.9467059
-0.14966638 0.34305397 1.9436681
-0.098157659 0.35957831 1.9030001
0.57088536 0.31956804 1.9259406
0.6473074 0.31568083 1.9242735
0.7493664 0.31282368 1.9186522
0.84972125 0.31298018 1.9187238
0.94192654 0.31098062 1.9120749
1.009137 0.32127804 1.903
-1.0290164 0.40516868 1.9062085
-0.9846583 0.40333736 1.903
-0.83104521 0.40065944 1.9030002
0.95652735 0.05070851 2.0478916
-0.74728954 0.19625862 2.0280001
0.79816663 0.19819804 2.0900002
0.8514058 0.1971152 2.0899994
0.9348349 0.14273691 2.0486214
-1.0029438 0.29910403 2.0640001
-0.94045132 0.28487226 2.0735633
-0.84836799 0.28247461 2.0709889
-0.74863398 0.26825908 2.0483713
-0.64913046 0.28157589 2.0683193
-0.5510537 0.2805562 2.0663781
-0.45097741 0.27853739 2.0654001
-0.34930107 0.27469647 2.0507433
-0.25100166 0.27597442 2.058414
-0.15639764 0.27786085 2.0596271
0.59080684 0.2590633 2.0223527
0.65226448 0.23942469 2.0456643
0.75061309 0.23408821 2.0452101
0.84858215 0.23206088 2.0435836
0.91599089 0.2204082 2.0559571
-1.11383 0.34511322 2.0096843
-1.0428091 0.3311207 2.0189722
-0.95146018 0.3180919 2.0269818
-0.85190111 0.31591132 2.0224161
-0.74966019 0.31371647 2.0218859
-0.64834785 0.31273422 2.0206048
-0.55301917 0.30898082 2.018496
-0.44491142 0.30768305 2.0165215
-0.34405684 0.30982456 2.0115418
-0.24924041 0.30911666 2.0154102
-0.1576634 0.30707541 2.011863
-0.43934515 0.091285951 2.1969995
0.9786315 0.061727297 2.1269002
1.0021816 0.07175269 2.197
-0.71281087 0.19696233 2.1970003
-0.63742685 0.19695796 2.1927993
-0.53166866 0.19591005 2.1943183
-0.44263786 0.18449873 2.193295
-0.36133945 0.187062 2.1895604
-0.2505351 0.19466725 2.1919231
-0.1574643 0.1889845 2.1831498
0.66776824 0.17334981 2.1436479
0.75092947 0.16848499 2.1479919
0.85106999 0.16128142 2.1495767
0.94132322 0.15536353 2.1497512
-0.91073012 0.25842363 2.1063337
-0.84955817 0.24440278 2.1201227
-0.73531443 0.23116572 2.1533532
-0.65129918 0.23173989 2.147553
-0.5519799 0.23162667 2.1467204
-0.45000017 0.22935554 2.1430566
-0.34940648 0.22648241 2.143754
-0.24888544 0.2281363 2.1441135
-0.16363041 0.22938614 2.1361234
0.64856476 0.20528971 2.1033535
0.73091036 0.20353939 2.102
-0.4552781 0.089522108 2.2158272
0.69808936 0.092477836 2.2756252
0.75245458 0.087254032 2.2729833
0.85264903 0.08356797 2.2717836
0.94705874 0.083808951 2.2691865
1.0141935 0.077972889 2.2646978
-0.72841692 0.18575585 2.2238271
-0.64780557 0.17073765 2.2416205
-0.55022669 0.16282727 2.2528715
-0.45042834 0.15079719 2.2385762
-0.35297891 0.1583703 2.2458007
-0.25177935 0.16359265 2.247093
-0.16957557 0.15993634 2.2424521
0.68750232 0.12323983 2.2287717
0.74843472 0.11689853 2.2267201
0.84826809 0.11345964 2.2266881
0.9517718 0.11211092 2.2238343
-0.7547735 0.20356321 2.2110002
0.87008035 -0.0011963726 2.3969998
0.94381577 -0.0010821758 2.3970001
1.0571628 -0.0025906165 2.3886535
-0.51143533 0.099637628 2.3160002
-0.43725586 0.074900649 2.3850021
-0.35377049 0.082984142 2.3741243
-0.25114697 0.085861452 2.3767247
-0.17654578 0.085165963 2.373378
0.76039541 0.045723844 2.3416462
0.84940189 0.037032511 2.3472455
0.94935596 0.035112783 2.337913
1.0310941 0.030806722 2.3470564
-0.6160146 0.13467444 2.308243
-0.54501933 0.11895274 2.304553
-0.44727337 0.1095545 2.3253546
-0.34621534 0.11673588 2.31917
-0.24791308 0.11847397 2.320276
-0.17829677 0.11865477 2.3216302
-0.31116089 -0.0041950471 2.4840002
-0.29543135 -0.0025267596 2.4840002
0.78077894 -0.021395404 2.4420002
0.84784359 -0.027648281 2.4500303
0.95322514 -0.029891502 2.4500165
1.0450214 -0.034911253 2.4485509
1.10791 -0.039816476 2.4575202
-0.41799307 0.051983733 2.414001
-0.34251776 0.041779209 2.4398773
-0.25170389 0.042149324 2.4437916
-0.18252037 0.045349292 2.4454446
0.7739023 0.0043935031 2.4139998
0.81469887 0.005286858 2.4139998
0.86955649 -0.10360701 2.5705001
-0.3270987 -0.0018249083 2.5020001
-0.23908728 -0.017556684 2.5338552
-0.1849536 -0.019097917 2.5447907
0.7999537 -0.065199099 2.5020001
0.86061692 -0.076194718 2.5163021
0.94432932 -0.072475791 2.5032406
1.0086564 -0.073841035 2.5020003
-0.32349792 0.0039363825 2.5020001
-0.24311163 0.0076866583 2.5019994
-0.17688848 0.0095676398 2.5025752
