# .PCD v0.7 - Point Cloud Data file format
VERSION 0.7
FIELDS x y z
SIZE 4 4 4
TYPE F F F
COUNT 1 1 1
WIDTH 626
HEIGHT 1
VIEWPOINT 0 0 0 1 0 0 0
POINTS 626
DATA ascii
-0.629875 -0.44068637 1.1799163
-0.58840591 -0.47105229 1.1945244
-0.65380573 -0.37999135 1.1916195
-0.50817275 -0.50246269 1.2467201
-0.46401322 -0.50958747 1.2789587
-0.61210608 -0.41536307 1.2090105
-0.54777586 -0.44603822 1.2447256
-0.48299101 -0.47335604 1.2846745
-0.63407671 -0.34270242 1.2329574
-0.57279891 -0.36386177 1.2738804
-0.70225251 -0.20491832 1.2553124
-0.65809816 -0.25532031 1.2660553
-0.59478778 -0.29340905 1.2936329
-0.71001506 -0.15289173 1.2830111
-0.68621105 -0.18280107 1.2875012
-0.41906208 -0.51351506 1.3131987
-0.34960595 -0.52570927 1.3636183
-0.29111814 -0.55201101 1.3955259
0.73428464 -0.56396651 1.3980001
-0.50666779 -0.40540218 1.3047086
-0.44258204 -0.44438595 1.3360989
-0.3736127 -0.46564749 1.3790972
-0.53169864 -0.33923024 1.3241746
-0.46361384 -0.35802382 1.3676504
-0.39724246 -0.39777842 1.3980001
-0.6193921 -0.22969244 1.3165534
-0.55387563 -0.25366607 1.3551712
-0.48744649 -0.28526926 1.3915612
-0.70945936 -0.11666405 1.3081242
-0.64734012 -0.14720631 1.3420094
-0.57879758 -0.17217325 1.3830249
0.18666074 -0.10237552 1.3968003
0.23623426 -0.1029766 1.3977146
-0.72162741 -0.045718092 1.3415238
-0.66854602 -0.061304696 1.3736478
0.16276838 -0.050332557 1.3729306
0.24709652 -0.049046002 1.3556279
0.31003705 -0.056249887 1.3926288
-0.74010265 0.043415416 1.3800095
-0.6927352 0.010147221 1.3965005
0.18118663 0.032117873 1.3807266
0.23590161 0.044520196 1.3668988
-0.77327168 0.11323938 1.3954641
0.23119855 0.10890991 1.3941953
-0.1231194 -0.60392749 1.4925148
0.55409795 -0.60392529 1.4911076
-0.30643228 -0.50999624 1.408986
-0.24556084 -0.53710145 1.4406245
-0.17097734 -0.56429708 1.4811356
0.58283937 -0.58163112 1.4897544
0.65409249 -0.54962981 1.4685429
0.72497177 -0.53463727 1.4360185
-0.33369321 -0.43986788 1.4266378
-0.26516318 -0.46027604 1.4701068
-0.19859362 -0.4988648 1.4960001
0.68234032 -0.486702 1.4898448
0.74221575 -0.45626333 1.4741849
-0.42103896 -0.33378947 1.4180868
-0.35664198 -0.35537821 1.4575719
-0.29125571 -0.38557842 1.492478
0.78291345 -0.38546953 1.4923965
-0.51315129 -0.21713552 1.4127908
-0.4483639 -0.24830538 1.4456192
-0.38270229 -0.27538931 1.4849416
-0.60456306 -0.10745245 1.40775
-0.54001909 -0.14275993 1.4330415
-0.47224954 -0.16417371 1.4760847
-0.0065297452 -0.12131794 1.4959999
0.051393136 -0.12840191 1.4699143
0.15020308 -0.13344851 1.4502405
0.25087294 -0.13677573 1.4493465
0.34856859 -0.13459295 1.4583359
0.41658291 -0.13015933 1.4854125
-0.62760478 -0.036949944 1.4230489
-0.56085205 -0.057238884 1.4652849
-0.49674106 -0.094273008 1.4960002
0.062258184 -0.056324035 1.4587356
0.11534441 -0.042255346 1.4156222
0.2925007 -0.099629156 1.4040002
0.35512686 -0.051012993 1.4431009
0.40920606 -0.077189133 1.4893042
-0.71801335 0.07441628 1.4179134
-0.65259248 0.048230834 1.4528677
-0.58750343 0.019487921 1.4887097
0.08524859 0.027443035 1.4828122
0.14012793 0.0561167 1.4403327
0.27937865 0.068092525 1.4200456
0.3293663 0.040619783 1.4607621
-0.74612218 0.14241388 1.4348977
-0.67607385 0.12093676 1.4803575
0.16697387 0.14123286 1.4638451
0.24352545 0.1504481 1.4408424
0.30879727 0.11959299 1.4885325
0.18982914 0.21817087 1.4902771
0.23241767 0.23458943 1.4795319
0.25767019 0.59836656 1.4959999
0.35794675 0.59677899 1.4947757
0.45381281 0.59550655 1.4910275
0.55185962 0.5944224 1.4892789
0.65370709 0.59196121 1.4847035
0.75022101 0.5864774 1.4748546
0.80424976 0.57413143 1.4895911
-0.83674288 0.6301685 1.4960001
-0.62437087 0.6296519 1.4960002
-0.53873944 0.62889814 1.4960002
-0.44284847 0.62629473 1.4943939
-0.34724277 0.62572736 1.4943655
-0.24655941 0.62373275 1.4931487
-0.14776465 0.62081116 1.4911929
-0.047740798 0.61811066 1.4893004
0.048517361 0.61609983 1.4874461
0.1509769 0.61233228 1.4859256
0.25020748 0.61067814 1.4831814
0.34929588 0.609249 1.4788535
0.44817749 0.60813749 1.4736301
0.54710424 0.60620129 1.4692284
0.64610738 0.60489422 1.464397
0.72382289 0.60236788 1.4554383
-0.10457272 -0.60594511 1.5070003
-0.042426504 -0.61394835 1.5525072
0.013835297 -0.62652373 1.5855285
0.36267659 -0.62220818 1.5807626
0.4425517 -0.61312252 1.544443
0.51943207 -0.60565621 1.5080124
-0.13423929 -0.539083 1.5245175
-0.06315022 -0.56068385 1.5671718
0.0022916708 -0.5961374 1.5930002
0.38419083 -0.5886305 1.5878329
0.45739886 -0.55891651 1.5667279
0.54563046 -0.54565042 1.528036
0.61904043 -0.51471728 1.5065869
-0.22535352 -0.43364143 1.5185413
-0.15709163 -0.45639294 1.5566511
-0.089169957 -0.48709214 1.5889584
0.4860051 -0.48341763 1.58723
0.55953425 -0.45879254 1.5689507
0.64765114 -0.44647047 1.5317333
0.72108793 -0.41838714 1.5079874
-0.31617731 -0.32054436 1.5115715
-0.25053594 -0.3502613 1.5470139
-0.18390663 -0.37635669 1.5829262
0.58922857 -0.38866669 1.5907043
0.65907073 -0.3607468 1.573175
0.74750537 -0.34785932 1.5354717
0.80416125 -0.31713387 1.5230784
-0.4047983 -0.20751855 1.5085427
-0.34292069 -0.24448411 1.5356125
-0.27563 -0.26489824 1.5762577
-0.013636074 -0.20674035 1.5787555
0.048318326 -0.21079974 1.5758313
0.15183008 -0.21356557 1.5713655
0.2505753 -0.21329074 1.5692711
0.33717498 -0.21407562 1.5672824
0.6944468 -0.29230562 1.5916872
0.75962526 -0.26389661 1.5761585
0.81311071 -0.24161479 1.5599172
-0.43175662 -0.13877887 1.5251752
-0.36541641 -0.15927199 1.5677799
-0.10513633 -0.14185874 1.5785208
-0.049241103 -0.14626165 1.5432558
0.045881663 -0.17862698 1.5288162
0.14671978 -0.18318018 1.523852
0.25018913 -0.18492106 1.5228733
0.3533982 -0.18434806 1.5244572
0.44818035 -0.14419167 1.5212449
0.79701167 -0.19478834 1.5930002
0.8284567 -0.17622271 1.5867671
-0.52059186 -0.028236067 1.5165725
-0.45658875 -0.054744922 1.5537546
-0.38990441 -0.08639428 1.589594
-0.032366361 -0.057983357 1.5598532
0.01857147 -0.032419249 1.5197961
0.39427668 -0.011558581 1.5075554
0.44961736 -0.052778341 1.5481169
-0.61067146 0.08414948 1.5099784
-0.54798001 0.051918097 1.5405546
-0.48261666 0.02438909 1.5789813
-0.011634152 0.016946005 1.5841603
0.045168187 0.053176317 1.5432746
0.1036598 0.091402963 1.5039448
0.37343296 0.061628588 1.5313861
0.41757521 0.03672355 1.5704346
-0.63032693 0.11848532 1.5158
-0.58019227 0.10654755 1.5464038
0.072826482 0.14059106 1.5653756
0.12310174 0.16272032 1.5238531
0.29360271 0.18460494 1.5072339
0.34415063 0.14846464 1.5480213
0.40242314 0.10356656 1.5902001
0.092569552 0.21271484 1.5860739
0.15269807 0.24888666 1.5469772
0.25876471 0.26707959 1.523373
0.32077047 0.23790173 1.5707021
0.17946826 0.33610445 1.5728972
0.23939487 0.34582153 1.5526972
0.30254325 0.30972824 1.5906668
0.23070917 0.41777337 1.583391
-0.83928508 0.58993936 1.5757246
-0.74678695 0.58747405 1.5747736
-0.65018576 0.58634573 1.5737222
-0.54867339 0.5848363 1.5680484
-0.45011148 0.5831176 1.5674384
-0.34979779 0.58225179 1.5669442
-0.24983329 0.58111376 1.5622163
-0.14910981 0.57952124 1.5592774
-0.049675081 0.57665551 1.5567508
0.04979787 0.57618839 1.5529873
0.15027097 0.57415932 1.5502349
0.24982533 0.57004374 1.5470273
0.34953609 0.56590194 1.5460212
0.45010486 0.56144029 1.5474921
0.55119765 0.55890137 1.5462123
0.64992517 0.55464798 1.5448939
0.75111133 0.54772264 1.5461333
0.82091385 0.53314525 1.5553577
-0.82980585 0.61654353 1.5333905
-0.75152427 0.61844373 1.5311834
-0.650208 0.61662453 1.5261728
-0.55131596 0.61510968 1.5216672
-0.45065957 0.61297345 1.5202438
-0.35123742 0.61225098 1.5175097
-0.25163472 0.61038482 1.5144849
-0.15252428 0.60838157 1.5109668
-0.056082066 0.60675812 1.5095093
0.052219816 0.6051777 1.5073234
0.13860014 0.60261357 1.5039339
0.20008008 0.60156834 1.5020001
0.062104072 -0.62517196 1.625502
0.15186952 -0.63570929 1.6683565
0.2485878 -0.62859404 1.6383501
0.32043567 -0.61744672 1.6088132
-0.025180591 -0.53012949 1.6147394
0.045609143 -0.5532608 1.6528093
0.13785313 -0.58438838 1.6883013
0.26021934 -0.5586949 1.6727954
0.34747839 -0.5467239 1.6327833
0.42178577 -0.521626 1.6095968
-0.11721822 -0.42110577 1.6102256
-0.049846537 -0.44953921 1.644109
0.020485306 -0.47518402 1.6820866
0.29053298 -0.49216056 1.6959995
0.36016214 -0.4601672 1.6727883
0.44703999 -0.44705039 1.6351823
0.52396756 -0.42227492 1.609131
-0.20967479 -0.31122553 1.6043378
-0.14393423 -0.3444992 1.6340688
-0.072933793 -0.36548698 1.6756696
0.39461064 -0.39545831 1.6929998
0.46098641 -0.36232954 1.6752907
0.5485791 -0.3485657 1.6365309
0.6265316 -0.32292292 1.609776
-0.30101028 -0.20346889 1.6010001
-0.2343486 -0.24059257 1.6243041
-0.16453265 -0.25935793 1.6704221
-0.098220162 -0.29804251 1.6960001
0.067793965 -0.24072649 1.6251425
0.15011574 -0.25934201 1.6482741
0.24205658 -0.2482502 1.6237992
0.30266735 -0.23618729 1.6010002
0.49289942 -0.29702258 1.6953572
0.56299257 -0.26455954 1.6757579
0.64933693 -0.24983354 1.6398504
0.73206663 -0.22404672 1.6129972
-0.32403293 -0.13506892 1.6152756
-0.25631833 -0.15432715 1.6571051
-0.17181191 -0.17053619 1.672668
-0.09755709 -0.108309 1.601
0.59741765 -0.19455111 1.6960001
0.66431868 -0.16640899 1.6784408
0.75097275 -0.15061058 1.6454784
0.82394129 -0.13454714 1.6191685
-0.41528299 -0.021273155 1.6066266
-0.34920356 -0.048462726 1.643851
-0.28197256 -0.074239798 1.68539
-0.10698138 -0.042124216 1.6448709
-0.07659445 -0.038118809 1.6197931
0.47778106 -0.0158049 1.6081096
0.69651556 -0.098870404 1.6960001
0.7653783 -0.070885517 1.6827794
0.83922189 -0.05156922 1.6591017
-0.50008565 0.074407183 1.6010002
-0.44353095 0.035169724 1.6177971
-0.36950815 0.015583792 1.6638191
-0.10748374 0.022909841 1.6864069
-0.049548477 0.050400205 1.6451308
0.0067030601 0.085090093 1.6047579
0.45841122 0.056506004 1.6306435
0.88875633 0.017689414 1.6927489
0.90252197 0.036351822 1.6960001
-0.02470959 0.13959745 1.6729622
0.026991233 0.15840265 1.6256318
0.38666195 0.17006324 1.6102974
0.43823639 0.14280915 1.657986
-0.90216362 0.27983564 1.6079999
-0.89382166 0.28520179 1.6027877
-0.0079880636 0.2082441 1.6938274
0.054733008 0.24679412 1.6513835
0.11253817 0.27754906 1.6099807
0.36530006 0.25685689 1.6354777
0.41598454 0.23232917 1.6820174
-0.90546983 0.36505741 1.6246041
-0.88697416 0.35696343 1.6235296
0.079778634 0.3352358 1.6788819
0.13591272 0.35648537 1.6326656
0.28705943 0.37644735 1.611576
0.33759651 0.34359992 1.6515396
-0.90739644 0.46270224 1.6742632
-0.87636358 0.45019519 1.6537875
-0.44335416 0.49766952 1.6960001
-0.36427113 0.49766952 1.6960001
-0.250716 0.49744418 1.6959996
-0.14602517 0.49626902 1.6939058
-0.04784885 0.49448696 1.6915457
0.049977988 0.49350163 1.6873049
0.15973434 0.45319086 1.6612135
0.25170308 0.46105775 1.640241
0.34676033 0.4770647 1.6744522
0.44865772 0.4831084 1.6714559
0.55097401 0.48051342 1.6700121
0.65038753 0.47855416 1.6660554
0.75150377 0.47742045 1.6622649
0.84660316 0.47451478 1.6580055
0.90429902 0.45094329 1.6896362
-0.91743827 0.53689414 1.6687651
-0.85200119 0.54743767 1.6487736
-0.74993521 0.54527324 1.6477395
-0.65075308 0.54170913 1.6474401
-0.55002904 0.53760284 1.6460224
-0.45003203 0.5348509 1.647215
-0.34985486 0.53236783 1.6454226
-0.25079557 0.53119266 1.6443843
-0.15096843 0.52886915 1.6421924
-0.050885979 0.52620429 1.6397461
0.049085155 0.52635938 1.6333739
0.1492044 0.52358335 1.6297883
0.24860564 0.52076399 1.6260415
0.34928823 0.51789361 1.6226529
0.44820592 0.51476747 1.6212656
0.54800403 0.51378393 1.6175117
0.64866364 0.51214558 1.6147938
0.74597442 0.51033473 1.6104221
0.82945889 0.50490147 1.6051298
0.15617676 -0.60418326 1.7039996
0.087253205 -0.5155592 1.7068602
0.15395939 -0.54363114 1.7266943
0.22368689 -0.52578032 1.7119054
-0.0072794738 -0.4096846 1.7048177
0.057994906 -0.44296211 1.7286788
0.14988905 -0.45807895 1.7715887
0.24963838 -0.44970793 1.7410797
0.32646266 -0.42523533 1.7122545
-0.034061868 -0.33890119 1.7217046
0.039310928 -0.35938281 1.7635666
0.10569526 -0.39662859 1.793
0.26739284 -0.37260574 1.7778901
0.35076857 -0.35073131 1.7466419
0.4294484 -0.32563731 1.7139413
-0.12334315 -0.23352292 1.7181326
-0.057647921 -0.26199839 1.749969
0.009754057 -0.28397205 1.7806213
0.14543025 -0.29202124 1.7040002
0.36924511 -0.28343457 1.7757351
0.4564009 -0.2634722 1.7375408
0.53334594 -0.23190457 1.7158915
-0.21368155 -0.12009758 1.7119985
-0.15879384 -0.148681 1.7382792
0.57515222 -0.15650758 1.7349623
0.63344181 -0.13060664 1.7177806
-0.30478996 -0.0071784602 1.7049001
-0.24466248 -0.050953057 1.7288212
-0.17300628 -0.074499041 1.7734779
0.58563691 -0.086610921 1.7689697
0.65517992 -0.076391831 1.7354195
0.73163462 -0.053935606 1.7120403
0.85766339 -0.0032084892 1.7076844
-0.30993897 0.0036649795 1.7060002
-0.29682234 0.002707639 1.7210001
-0.10961941 0.074598983 1.7189418
-0.089397438 0.083595023 1.7081319
0.8750366 0.054496337 1.7310557
0.91044438 0.076322742 1.7210182
-0.10660327 0.13934045 1.7522162
-0.069202416 0.15721899 1.7301135
0.47358015 0.17552565 1.7136073
0.88006032 0.13730437 1.7739236
0.91909498 0.15593098 1.7635359
-0.10676438 0.21086408 1.7939997
-0.041767605 0.24558385 1.755638
0.013913629 0.27803087 1.7138796
0.45545143 0.25485092 1.7412715
0.94006836 0.21745431 1.7880702
-0.018139603 0.32431915 1.778897
0.037667736 0.35305831 1.7371572
0.38162756 0.36196989 1.7172074
0.4289785 0.33269846 1.7575188
0.56739146 0.39781138 1.7939994
0.65762132 0.39701584 1.7932948
0.74913579 0.39597362 1.7917522
0.8459692 0.39359355 1.7883023
0.93397707 0.39071521 1.7856051
-1.0027921 0.46380767 1.7915001
-0.95819163 0.48207405 1.7633071
-0.84684306 0.47879514 1.7596307
-0.74850595 0.47559598 1.7570369
-0.6495527 0.47431415 1.7536848
-0.54888999 0.47326189 1.7493242
-0.44994107 0.470332 1.7496712
-0.35068583 0.46913084 1.7482878
-0.2499249 0.46837193 1.7476547
-0.1511268 0.46562216 1.7457672
-0.050531525 0.46045682 1.7477882
0.051040769 0.4526228 1.7464929
0.12433699 0.45950699 1.7202432
0.36191189 0.44517535 1.7328714
0.4514536 0.43695393 1.7462701
0.54876995 0.43195724 1.7446831
0.64967877 0.42877051 1.7445713
0.74904287 0.42729256 1.742426
0.84916973 0.42588997 1.7397861
0.91564268 0.41704232 1.7433878
-0.94746524 0.50999486 1.720309
-0.83011377 0.50772822 1.713617
-0.75838888 0.50728315 1.7088821
-0.65179992 0.5051738 1.7069136
-0.55998576 0.50269449 1.7043338
-0.44789782 0.50134838 1.7039999
-0.35156953 0.50077385 1.7039995
-0.25416231 0.50001711 1.7040002
0.15580145 -0.4165073 1.8084313
0.075753488 -0.32540113 1.8123897
0.14812972 -0.3634243 1.8275584
0.24200594 -0.3405318 1.8133085
0.30523938 -0.30643684 1.8037142
-0.0083044944 -0.25187141 1.8030001
0.034743935 -0.28129706 1.8126515
0.28742486 -0.29746678 1.820412
0.32418716 -0.28637859 1.8078068
-0.13737197 -0.072254345 1.8043416
0.59514815 -0.071894333 1.8030001
-0.11168235 0.19589168 1.8030001
0.87102747 0.17601845 1.8155516
0.90029967 0.19900547 1.8030001
-0.10352109 0.25594166 1.8257353
-0.084225617 0.26851365 1.815246
0.48616549 0.29864681 1.8030001
0.87788117 0.2424152 1.8410919
0.92893922 0.26123846 1.8216461
-1.0138412 0.39773673 1.8930001
-0.93402755 0.39755768 1.8910445
-0.85335076 0.39497784 1.8891354
-0.74672502 0.39231071 1.888061
-0.65039444 0.39126295 1.8878165
-0.54814112 0.38857934 1.8823508
-0.44969451 0.38843915 1.88089
-0.34941837 0.38768139 1.8804059
-0.24587461 0.38750309 1.8785316
-0.15003748 0.38343167 1.8753216
-0.058225784 0.35915959 1.8487055
0.0085143195 0.3913306 1.8160002
0.47032392 0.37474826 1.8322983
0.54918969 0.36717477 1.8481674
0.64998847 0.36271626 1.8479362
0.75024229 0.36101642 1.8465903
0.84917611 0.35817 1.8487422
0.94281757 0.34638616 1.8528105
1.0026091 0.3324694 1.878
-1.0115889 0.43149745 1.8545262
-0.93851697 0.42967051 1.8510439
-0.8506456 0.42982468 1.8387115
-0.75148046 0.42513627 1.836247
-0.65000951 0.42377272 1.8340416
-0.54981381 0.42341188 1.8307909
-0.45149463 0.42145166 1.8308768
-0.34905666 0.42067629 1.8309318
-0.25117952 0.41929668 1.8274356
-0.14929841 0.41862667 1.823545
-0.051483896 0.41495135 1.8218436
0.016734801 0.41553763 1.8126434
0.45093587 0.40345544 1.8044872
0.53131545 0.40192091 1.803
0.57732111 0.28489542 1.9747593
0.64980477 0.28414261 1.9735316
0.75083792 0.28154114 1.9670833
0.85092205 0.28078806 1.9651027
0.90592575 0.26203087 1.9888575
-1.034484 0.36651546 1.9594918
-0.94973284 0.3653895 1.9476286
-0.84889424 0.35902086 1.9449881
-0.7504158 0.35367182 1.9476335
-0.6506868 0.35325593 1.9487827
-0.55108857 0.34823722 1.9485042
-0.45027602 0.34685311 1.9491894
-0.34991789 0.34618521 1.9489872
-0.25157374 0.34312984 1.942158
-0.15084967 0.34033608 1.942925
-0.094875537 0.35984915 1.9054446
0.5669058 0.3186084 1.930225
0.64676517 0.31457165 1.9262221
0.7491619 0.31350803 1.9177872
0.85134184 0.31275308 1.9176295
0.91293031 0.31547794 1.905316
-1.0055945 0.40321568 1.9030001
-0.98856217 0.40206796 1.903
-0.74739408 0.17390658 2.0781298
0.85600787 0.19684441 2.0899994
0.93532544 0.19729568 2.0900002
-1.1269261 0.29010236 2.0792356
-1.0445734 0.28885975 2.0781739
-0.94772613 0.28351375 2.0733941
-0.85092968 0.28131878 2.0672233
-0.7532559 0.26874 2.0701766
-0.64925802 0.28054973 2.0664849
-0.54979897 0.27840197 2.0602016
-0.45127186 0.27665931 2.0628254
-0.34804928 0.272614 2.0535941
-0.25102186 0.27475566 2.0597036
-0.16104154 0.27900994 2.05775
0.58823937 0.25225407 2.0276508
0.65291387 0.23932958 2.0457573
0.74944818 0.23397851 2.0454648
0.84949344 0.23151259 2.0444145
0.92139649 0.22297564 2.0516219
-1.1219171 0.31643763 2.0521667
-1.0525817 0.32261217 2.0299213
-0.95250064 0.3162083 2.0253034
-0.8499378 0.3143422 2.0173481
-0.75165892 0.31108111 2.0200591
-0.65145898 0.31116977 2.0175002
-0.54888588 0.31034017 2.0162959
-0.44637555 0.30763504 2.0154769
-0.34987533 0.30817902 2.0132906
-0.24529789 0.30700779 2.0151725
-0.16502118 0.30506507 2.007864
-0.90981716 0.19583406 2.1892223
-0.84956431 0.19206662 2.1942008
-0.74935979 0.18224864 2.1506324
-0.64021063 0.19495463 2.1897128
-0.53127068 0.19347043 2.1934476
-0.45408645 0.19395144 2.1905067
-0.36180004 0.19395745 2.1909995
-0.24641897 0.19362202 2.1917205
-0.16640773 0.19176067 2.1888342
0.66325557 0.17253865 2.1471453
0.75046021 0.1681571 2.1484869
0.84962136 0.16217099 2.1502631
0.94578367 0.15926239 2.1540711
1.0101005 0.13379149 2.188133
-1.1127217 0.27878779 2.1072001
-1.0391186 0.26140347 2.1144938
-0.94639099 0.23949888 2.1404359
-0.85371417 0.23338713 2.1448805
-0.74128306 0.23137902 2.1314278
-0.65198499 0.23098136 2.1451356
-0.55239487 0.22996747 2.1461761
-0.44910869 0.22771958 2.1427279
-0.3494066 0.22368202 2.1471465
-0.24828655 0.22703415 2.1415491
-0.16651611 0.22853018 2.1375668
0.64688593 0.20571084 2.1058648
0.74648178 0.2029662 2.102
-0.43579635 0.072925746 2.2601848
-0.38861522 0.096043259 2.274091
0.69382364 0.094703034 2.2745004
0.75385755 0.088388227 2.2742422
0.85223371 0.085909955 2.2718751
0.94818836 0.08465527 2.26946
1.0273092 0.084239513 2.2618966
-0.84194767 0.18211734 2.2130733
-0.73494381 0.16597916 2.2491322
-0.6499846 0.16445582 2.2514863
-0.5536105 0.16157402 2.2492898
-0.44703558 0.15660356 2.2480707
-0.35578418 0.15471469 2.2467928
-0.25203258 0.16136397 2.2450314
-0.1729549 0.16315547 2.242393
0.68262249 0.12245503 2.228616
0.74718058 0.11712926 2.231076
0.84801704 0.11308932 2.2288315
0.95095128 0.11236575 2.2250364
1.0182444 0.11149436 2.2221367
0.87677264 -0.0017483234 2.3970001
0.94904387 -0.000368446 2.3969998
1.0673581 -0.00085546152 2.3969998
1.1058325 -0.00036844597 2.3970001
-0.61582607 0.092125453 2.354531
-0.54900211 0.080259241 2.3744657
-0.45139867 0.082413465 2.3571818
-0.35307005 0.083669901 2.372227
-0.25156695 0.083690248 2.3775086
-0.17941448 0.081276797 2.3730254
0.69763398 0.085046887 2.3000002
0.7538082 0.048874069 2.3412018
0.85097122 0.041308168 2.3444543
0.94910365 0.03625495 2.344461
1.0482976 0.035327211 2.3453825
1.1094717 0.011398827 2.3758001
-0.71072751 0.1275616 2.3045714
-0.64906973 0.1186728 2.3177836
-0.55010313 0.11529202 2.3186929
-0.46973118 0.1165107 2.3207335
-0.33525002 0.11570291 2.3144939
-0.24927691 0.11763576 2.321291
-0.18075188 0.11960503 2.3226955
-0.37007526 -0.0070740343 2.4840009
0.77504003 -0.016692458 2.4405351
0.85019279 -0.026023701 2.4528952
0.9521057 -0.033256412 2.4533756
1.0455506 -0.024320757 2.430898
1.1218022 -0.015840214 2.4190683
-0.58206207 0.064248309 2.414
-0.42772639 0.034548931 2.4393768
-0.35217881 0.03979779 2.4490628
-0.24894682 0.041116182 2.443373
-0.18716086 0.04455417 2.4342728
0.76598841 0.0069255098 2.4145319
0.82694227 0.0073114783 2.4157903
-0.33036083 -0.011988353 2.5151861
-0.24719474 -0.02654261 2.5535119
-0.19546677 -0.032095242 2.5658748
0.79488117 -0.054866351 2.5019996
0.85234177 -0.073039867 2.5053053
0.9179399 -0.068199776 2.5019996
-0.40343583 0.0039363825 2.5020001
-0.33404911 0.0077549121 2.5019994
-0.25429162 0.0076906621 2.5019994
-0.19639742 0.0061043394 2.5067501
