# .PCD v0.7 - Point Cloud Data file format
VERSION 0.7
FIELDS x y z
SIZE 4 4 4
TYPE F F F
COUNT 1 1 1
WIDTH 618
HEIGHT 1
VIEWPOINT 0 0 0 1 0 0 0
POINTS 618
DATA ascii
-0.53421324 -0.50452769 1.2596985
-0.47437555 -0.51247847 1.288399
0.67899555 -0.52322209 1.2970001
-0.6427657 -0.44497779 1.2427791
-0.56085116 -0.46390894 1.2724913
-0.48831841 -0.49360409 1.2936487
-0.70928192 -0.33239636 1.2812401
-0.66413504 -0.3718811 1.2783667
-0.59884143 -0.39925295 1.2945001
-0.72319824 -0.29650959 1.2970001
0.17623597 -0.026056647 1.2791764
0.24790683 -0.028998371 1.2710884
0.31156576 -0.024832882 1.2903259
0.18384057 0.036121622 1.2775465
0.23912954 0.043718394 1.2663449
0.30646166 0.0086915558 1.2945002
0.19965132 0.10283724 1.2970001
0.21612909 0.11306722 1.2921228
-0.42589054 -0.51263976 1.3119378
-0.34802604 -0.52112395 1.3466166
-0.25824264 -0.53404838 1.3834165
-0.19155666 -0.56096572 1.3973141
0.58109546 -0.53717476 1.3867041
0.63984931 -0.52051359 1.3438933
-0.53205729 -0.42546296 1.314374
-0.44973171 -0.44951403 1.3418969
-0.36006719 -0.46488333 1.3761991
-0.28673133 -0.49083453 1.3957429
0.59665048 -0.49483863 1.3974289
0.65879935 -0.45572877 1.3642139
0.70517474 -0.41920593 1.3458554
-0.70622408 -0.30677685 1.3022861
-0.638569 -0.33236501 1.3205625
-0.5508948 -0.35173464 1.3522017
-0.46635431 -0.37158388 1.3818667
-0.39724246 -0.39777842 1.3980001
0.68296337 -0.37428972 1.3871609
0.71393251 -0.34633008 1.3773438
-0.72112358 -0.24419424 1.3338112
-0.65407538 -0.25472265 1.3632741
-0.57400137 -0.27927032 1.3873866
0.73131621 -0.28401294 1.3943144
-0.74012148 -0.16069879 1.3807821
-0.68253702 -0.18612592 1.3912327
0.087183423 -0.11212758 1.3929735
0.15095934 -0.11564169 1.3800644
0.24827668 -0.11546031 1.3772155
0.34565791 -0.11366118 1.38292
0.43395689 -0.1087269 1.3905799
0.086491518 -0.062735461 1.3827473
0.13904853 -0.055196445 1.336085
0.25065038 -0.079023495 1.3258097
0.35456601 -0.053603329 1.3299682
0.44156155 -0.055462275 1.3720114
0.50388634 -0.08253286 1.3980002
0.097995877 0.0055155465 1.3965001
0.14378212 0.052142933 1.3475155
0.28030041 0.076792315 1.3131709
0.34680352 0.047502786 1.3486568
0.41605896 0.022094443 1.3870574
0.17180246 0.14411014 1.355438
0.2495546 0.15196459 1.3437246
0.32017645 0.12597625 1.3823085
0.18633281 0.23144569 1.3842473
0.22610348 0.23362805 1.3791685
0.077021807 -0.60319287 1.4945997
0.41548464 -0.60375988 1.4911786
-0.22246407 -0.51586723 1.4112723
-0.14760347 -0.53652114 1.4336154
-0.053748187 -0.54928732 1.4699081
0.027284503 -0.58169121 1.4868573
0.46615702 -0.55552393 1.4753025
0.53453726 -0.53366536 1.4295404
-0.33223078 -0.4253996 1.4158608
-0.24836738 -0.44860452 1.4420626
-0.15898226 -0.46437919 1.4751023
-0.08696799 -0.49060896 1.4903657
0.49011424 -0.4875623 1.4889864
0.55508977 -0.45320678 1.4538246
0.61763042 -0.42794541 1.4166423
-0.50526214 -0.30442736 1.4056363
-0.43891862 -0.33388948 1.4208666
-0.35253426 -0.35288265 1.4524369
-0.26546463 -0.37454033 1.4807103
0.57846767 -0.36555749 1.4810228
0.64321887 -0.34472987 1.43799
0.70625144 -0.30999577 1.4067092
-0.61595643 -0.21151088 1.4099445
-0.54234403 -0.24170519 1.4276567
-0.45483103 -0.25584477 1.4636276
-0.37574211 -0.28186873 1.4877818
0.13210721 -0.20175077 1.4959999
0.59877008 -0.29476035 1.4960002
0.66242158 -0.25819632 1.4684911
0.72230107 -0.24280696 1.4257895
-0.72715795 -0.11938772 1.4156299
-0.64687687 -0.14656344 1.4376293
-0.55797297 -0.16096827 1.4717252
-0.48665491 -0.18781224 1.4917742
-0.0077771707 -0.14983401 1.4924504
0.047500014 -0.14776661 1.4530243
0.14850773 -0.16380492 1.4484121
0.25098097 -0.16352266 1.4496194
0.35116377 -0.15628982 1.4475999
0.43359074 -0.13523713 1.4259843
0.5058701 -0.10317342 1.4156668
0.68835968 -0.18124719 1.4891876
0.73779434 -0.15160534 1.4643332
-0.80487889 -0.015937079 1.445938
-0.74979609 -0.04979445 1.449849
-0.66352695 -0.069476083 1.4790099
-0.59668326 -0.094746672 1.4960002
0.048788175 -0.048635233 1.4483333
0.48428085 -0.026261158 1.4123002
0.51389563 -0.039694924 1.4217049
0.76978278 -0.063070752 1.4845829
0.8012597 -0.0028135523 1.4959999
-0.81377351 0.034705948 1.4780161
-0.77118415 0.021694427 1.4862328
0.074634388 0.045038294 1.4571439
0.10896081 0.073057882 1.4169844
0.38803047 0.08735422 1.4131392
0.45522001 0.054412838 1.4416804
0.51483697 0.030236393 1.4645286
0.79695374 0.0087265288 1.4960002
0.80125964 0.010104449 1.4960002
0.088918559 0.13529469 1.4821742
0.12390323 0.15590943 1.4363775
0.2939018 0.19126506 1.4087669
0.35873744 0.15703057 1.4355028
0.42941085 0.13585199 1.477362
0.15028059 0.25045416 1.4481139
0.26608738 0.26102334 1.4279747
0.33643001 0.23905773 1.4704478
0.40166286 0.20215207 1.4959999
0.17570841 0.3432295 1.464512
0.24097553 0.34353697 1.4619584
0.30785665 0.31045228 1.493428
0.18861125 0.41994062 1.4887358
0.21410616 0.4177911 1.4884275
-0.81417155 0.57899106 1.4752905
-0.75098526 0.58218801 1.4715322
-0.65039313 0.58351123 1.4743192
-0.54995316 0.58511168 1.4757905
-0.45117435 0.58558261 1.4771545
-0.35080984 0.58720309 1.4781449
-0.2499219 0.58846253 1.4796523
-0.15089567 0.58877563 1.4824245
-0.052365229 0.58955479 1.4835693
0.047982059 0.59134632 1.4858516
0.14964816 0.59177917 1.4853394
0.24741033 0.59203827 1.4856836
0.34723923 0.59207076 1.4887404
0.44731832 0.59355128 1.4892863
0.54926586 0.59334505 1.4907361
0.65003037 0.59448254 1.4887692
0.75455666 0.59150046 1.4843761
0.80440503 0.58342576 1.4898745
-0.80274308 0.60239327 1.4330001
-0.74592346 0.60305238 1.4410487
-0.65214962 0.60382318 1.4444698
-0.5516755 0.60402876 1.4471056
-0.4521476 0.60417795 1.4490682
-0.34912041 0.60491925 1.4512111
-0.25099766 0.60517889 1.454162
-0.15024948 0.60537219 1.4564923
-0.049008295 0.60624397 1.4591943
0.050339304 0.60651565 1.4617492
0.15034895 0.6070832 1.4626467
0.25061908 0.60759765 1.464934
0.35152379 0.60736954 1.4667147
0.44914329 0.60746062 1.4699736
0.54865938 0.60609686 1.4707061
0.64922106 0.60611594 1.4722661
0.73830193 0.60466355 1.4682227
0.096321583 -0.60332704 1.502
0.15640363 -0.60939807 1.52586
0.25406209 -0.61640364 1.5655203
0.34023869 -0.61408448 1.5524384
0.4034881 -0.60416645 1.5041
-0.021014456 -0.51389033 1.5080262
0.055875499 -0.54166442 1.5251694
0.14702217 -0.55363238 1.5564758
0.23187004 -0.57535273 1.5802982
0.36283362 -0.55779785 1.562924
0.42409 -0.5382328 1.5208446
-0.13324739 -0.42310604 1.5144366
-0.04858679 -0.44866127 1.5382843
0.042548954 -0.46222731 1.5706267
0.11717189 -0.48687828 1.5866604
0.38646322 -0.4762778 1.5852956
0.45007738 -0.44995341 1.5446717
0.51091069 -0.42063469 1.5095713
-0.31130138 -0.30953249 1.5031365
-0.2401313 -0.33470145 1.5216705
-0.15197764 -0.35243621 1.5511529
-0.065105587 -0.37348291 1.577934
0.00036588684 -0.39915723 1.5930001
0.47454786 -0.36227009 1.5705941
0.53589809 -0.34255356 1.5294725
-0.42068681 -0.21356837 1.5084734
-0.34407714 -0.24263781 1.5290556
-0.25498781 -0.25621894 1.5634028
-0.17766754 -0.28287145 1.5827941
-0.0060515562 -0.20325518 1.5157781
0.059717514 -0.21003051 1.51705
0.15523723 -0.22434019 1.5412836
0.25002536 -0.22764063 1.552317
0.32646617 -0.21758336 1.5397707
0.49450457 -0.28927663 1.5893948
0.55906838 -0.25571933 1.5562227
0.62105769 -0.23049684 1.5156617
-0.52808344 -0.12040905 1.5134269
-0.44752872 -0.14790042 1.5373588
-0.35920557 -0.16284235 1.5718081
-0.28783196 -0.18741588 1.5871327
-0.030627701 -0.14473721 1.5284425
0.022176346 -0.19344555 1.504254
0.16622151 -0.1984856 1.5050912
0.24547473 -0.19771561 1.5024999
0.34901977 -0.19355229 1.5083187
0.58402735 -0.1736965 1.5803177
0.64773136 -0.14745502 1.5402676
0.71155232 -0.11390904 1.5064253
-0.70732641 -0.00368949 1.502
-0.63748139 -0.029494755 1.5184015
-0.5514918 -0.051046908 1.5462205
-0.46411183 -0.071927056 1.5774404
-0.39671239 -0.097451098 1.5930001
-0.022867629 -0.057248496 1.5608102
0.010152108 -0.036102206 1.5194623
0.66882879 -0.060612183 1.5703937
0.73422718 -0.040573459 1.5276971
-0.73643428 0.03624405 1.5101771
-0.65622497 0.020715909 1.5424188
-0.57385308 0.010002627 1.576297
-0.0082607726 0.020961987 1.5819297
0.026683135 0.0544618 1.5414895
0.49529439 0.094372503 1.5026363
0.50898302 0.087614827 1.5044227
0.6920343 0.013582717 1.5909106
0.75779551 0.034570027 1.5495257
0.80733627 0.062111069 1.5214415
0.053416017 0.14922743 1.5471743
0.46894509 0.16224942 1.5267229
0.5062744 0.14812797 1.5436651
0.078707613 0.24296671 1.5583812
0.11240107 0.2673429 1.5196373
0.37474108 0.26901165 1.5216883
0.4418014 0.24242201 1.5570861
0.50584221 0.21315365 1.5839112
0.092513114 0.32681358 1.5822715
0.12890591 0.35370243 1.5398637
0.28119722 0.37587109 1.5154369
0.34658787 0.34774229 1.549633
0.41315219 0.31816602 1.5842302
-0.87173903 0.49770778 1.5930001
-0.75206536 0.49770781 1.5930001
0.16014147 0.44564763 1.543842
0.25076398 0.44441083 1.5349293
0.3214277 0.42224148 1.5771548
-0.83702135 0.53103745 1.5527861
-0.74895805 0.5343172 1.5465426
-0.64976287 0.53667825 1.5465881
-0.54966933 0.53838265 1.5455773
-0.44941515 0.54043549 1.5457082
-0.35067636 0.54292351 1.5470443
-0.25013542 0.54658115 1.5462829
-0.14925748 0.5485059 1.5472214
-0.050069835 0.55003858 1.546775
0.049823809 0.55263329 1.5461475
0.15075558 0.55079895 1.5475246
0.24915892 0.55326092 1.5474466
0.34970003 0.55344719 1.5477471
0.45098573 0.55642194 1.547421
0.54983783 0.55709952 1.5466801
0.64982039 0.56034398 1.5457771
0.74916428 0.55733514 1.5468074
0.82222342 0.54772055 1.5576942
0.29621586 -0.60023719 1.6010002
0.30174571 -0.60023719 1.6010001
0.18251458 -0.50884616 1.6035202
0.26014864 -0.53570765 1.6190816
0.31907052 -0.53437412 1.6135412
0.065451026 -0.41861275 1.6111989
0.15306126 -0.44650844 1.6302372
0.24699019 -0.4538064 1.6644068
0.34428343 -0.4466213 1.6369481
0.40800557 -0.41296291 1.6041669
-0.11315418 -0.30746806 1.6033334
-0.0407979 -0.33269975 1.6177356
0.048952293 -0.35002303 1.6455319
0.14038137 -0.36445451 1.6763973
0.22096635 -0.39048159 1.6933992
0.36625239 -0.35980085 1.6677366
0.4320012 -0.34039393 1.6207571
-0.22069515 -0.21428919 1.6093872
-0.1453651 -0.24382244 1.6271476
-0.054251447 -0.25434119 1.6612108
0.031838093 -0.2784442 1.6850206
0.24546489 -0.26443762 1.609919
0.39019322 -0.28485614 1.6897889
0.45514259 -0.25500932 1.6489094
0.51677537 -0.22462189 1.6126462
-0.33177054 -0.12289754 1.6118206
-0.24791709 -0.14811908 1.63622
-0.15865003 -0.1614096 1.6715071
-0.083455414 -0.18720561 1.6926711
0.48797095 -0.19080977 1.6514937
0.54681736 -0.16428682 1.6173146
0.60556501 -0.11039128 1.6033803
-0.50852764 -0.0049880901 1.6034864
-0.43983331 -0.033491693 1.6145806
-0.35268524 -0.06050539 1.6392852
-0.26073483 -0.071949199 1.677618
-0.19682987 -0.097894073 1.6960001
-0.048150994 -0.026278857 1.6175334
0.59742963 -0.059953205 1.608
0.63170552 -0.037310317 1.6134752
-0.91566879 0.083820783 1.6851673
-0.89019519 0.088578552 1.6835687
-0.53022021 0.0088294931 1.6030263
-0.48392954 0.0039366004 1.6139168
-0.03494424 0.051662423 1.6404246
0.0016688703 0.088882424 1.601
0.66466874 0.017113291 1.6123886
0.70926183 0.042933069 1.6026803
-0.90905511 0.14074898 1.691681
-0.88994211 0.13007742 1.6911359
-0.020679876 0.1420615 1.6673596
0.013549929 0.16218649 1.6187536
-0.0086006578 0.22046596 1.6878809
0.031477731 0.2535609 1.6412414
0.48107839 0.27724633 1.6104957
0.50598633 0.25908294 1.6130551
0.060117591 0.34785244 1.6486601
0.10384359 0.39114699 1.6043481
0.38762638 0.38371068 1.6076893
0.45288852 0.35163018 1.6356916
0.5025593 0.32531714 1.6500344
0.88063663 0.3767499 1.6586527
-0.91713279 0.45497787 1.6697667
-0.85045844 0.46923542 1.6481558
-0.75006759 0.46825829 1.6501036
-0.65032899 0.46933123 1.6506445
-0.55013812 0.47047949 1.6512452
-0.45047414 0.47276655 1.652335
-0.35036331 0.47432512 1.654127
-0.25135508 0.47566426 1.6581467
-0.15052162 0.47630724 1.6612444
-0.050715573 0.47707963 1.6609007
0.055745669 0.46759656 1.6629769
0.11912358 0.4650524 1.6304731
0.28456932 0.49281186 1.6215962
0.36059228 0.4669041 1.6442835
0.44520321 0.47038522 1.6664242
0.54955018 0.47934943 1.6672317
0.64868349 0.48036072 1.6692117
0.75151235 0.48203722 1.6719797
0.85386765 0.47489887 1.6707422
0.90532941 0.45687637 1.6924999
-0.83385056 0.50369179 1.6017406
-0.74921638 0.50199234 1.6013441
-0.64522493 0.50377256 1.6025975
-0.55338269 0.50417435 1.602633
-0.45202628 0.50522345 1.6040664
-0.34453261 0.50600207 1.6052941
-0.24578203 0.50770944 1.6080757
-0.14937636 0.50887465 1.6101103
-0.050344151 0.50996476 1.6097618
0.049429417 0.51086205 1.612453
0.12778045 0.51022148 1.6119477
0.27243859 0.51413578 1.6075537
0.35114017 0.51060337 1.6150899
0.44970223 0.51161146 1.6165189
0.55034781 0.51244545 1.6144245
0.65151304 0.51495337 1.6182424
0.74865687 0.51443678 1.6195129
0.8353734 0.51179856 1.6177603
0.28264239 -0.41081914 1.7068367
0.30252066 -0.40588024 1.7040004
0.097504355 -0.30042928 1.7040001
0.167215 -0.32437885 1.7138162
0.25303742 -0.34862632 1.7324902
0.3244682 -0.33439311 1.7195865
0.060240556 -0.26042604 1.7090589
0.13857694 -0.28371665 1.7290149
0.2086885 -0.29698572 1.74575
0.36063388 -0.28065917 1.7207261
0.41248307 -0.24077532 1.7077751
-0.12957084 -0.12171984 1.7119102
-0.081880994 -0.14045341 1.7212931
-0.21793588 -0.059522919 1.7058533
-0.15377997 -0.081749387 1.724143
-0.087332062 -0.085321575 1.7550792
-0.06247611 0.092839696 1.7079377
-0.90377301 0.18734899 1.7049644
-0.88184905 0.17386721 1.7071903
-0.052214723 0.16206698 1.725619
-0.90403837 0.22960819 1.7204617
-0.88229007 0.25100029 1.7289735
-0.035465136 0.24855359 1.7469159
0.0028818552 0.28729802 1.7057306
-1.0018711 0.37616137 1.794
-0.94424188 0.3808547 1.7737277
-0.86128885 0.36420187 1.7644303
-0.75103033 0.38686654 1.7731822
-0.65256029 0.3876155 1.7770668
-0.54881138 0.38735393 1.778357
-0.4516463 0.39061031 1.7805657
-0.35302791 0.39200288 1.7857877
-0.246226 0.3941249 1.7869929
-0.15230148 0.39340377 1.7878625
-0.031498037 0.35263681 1.7755686
0.016436296 0.36058915 1.7321332
0.49257758 0.39554703 1.7040001
0.56097466 0.39638203 1.7874992
0.65524507 0.39766538 1.7939992
0.7441504 0.3988421 1.7939996
0.82144773 0.39939821 1.794
0.93251991 0.39831671 1.7891668
-0.93485367 0.41525847 1.7271035
-0.84925252 0.41963634 1.7247295
-0.74947619 0.4175458 1.7273841
-0.64891052 0.41843954 1.7266662
-0.55008239 0.4200213 1.7311686
-0.44929746 0.42203477 1.732576
-0.35011744 0.42335242 1.7358069
-0.24978986 0.42553473 1.7394172
-0.15028054 0.42587924 1.7403817
-0.050011426 0.4269743 1.7413194
0.030842597 0.43203825 1.7333943
0.47083938 0.43991342 1.7162424
0.55290353 0.43109027 1.7394357
0.65050638 0.4311972 1.7430282
0.74989426 0.43290532 1.7452646
0.85130924 0.43534267 1.744836
0.91048133 0.43333548 1.7410128
-0.90187031 0.29720816 1.8930001
-0.68119788 0.29720816 1.8930001
-0.061202247 0.28290454 1.8111625
-1.0233368 0.33196709 1.8624536
-0.96232694 0.34404579 1.8389012
-0.84701139 0.33492371 1.849978
-0.74996191 0.33915806 1.8458544
-0.64910173 0.34097889 1.8470914
-0.54998243 0.34505868 1.8483469
-0.44924632 0.34690771 1.8478137
-0.35023394 0.35230786 1.8463624
-0.2509875 0.35564587 1.8490858
-0.150139 0.35800302 1.8475316
-0.05979836 0.35799706 1.8332428
0.58166808 0.37350726 1.8325077
0.65039569 0.36264017 1.848443
0.74981076 0.36520159 1.8469381
0.84775424 0.36751571 1.8491333
0.93935221 0.36412978 1.8575383
1.0034395 0.34410179 1.89025
0.72904116 0.40140191 1.8030001
0.86564946 0.40254009 1.8040425
0.91691524 0.40333721 1.8063335
-1.1068429 0.25100964 1.9845418
-1.0623618 0.27262416 1.9517217
-0.93544382 0.26409274 1.9576691
-0.84965605 0.26845774 1.9488386
-0.75020719 0.26979345 1.9494046
-0.64942443 0.27153939 1.9534973
-0.55094671 0.27353996 1.9580853
-0.44916895 0.27549037 1.9590914
-0.35073867 0.27611151 1.9628036
-0.25150093 0.2796523 1.9660882
-0.15099554 0.28229547 1.9622557
-0.090565071 0.28589061 1.9466876
0.66835886 0.28564075 1.9656428
0.74888211 0.28248042 1.9706231
0.84849375 0.28455651 1.9727876
0.9475624 0.28606874 1.9780401
1.0247918 0.28749177 1.977075
-1.0336607 0.30328172 1.9064143
-0.938528 0.30392382 1.9043751
-0.85032403 0.30313522 1.9035946
-0.75891536 0.30206475 1.9030001
-0.62649894 0.30368 1.9065429
-0.54590464 0.30574477 1.9086604
-0.45076114 0.30503377 1.90767
-0.34502426 0.30993837 1.9130915
-0.2450763 0.30992448 1.9129046
-0.14734207 0.31318048 1.9144343
-0.092010915 0.31331712 1.9157964
0.65636408 0.31456265 1.9223669
0.75120783 0.31537965 1.9189692
0.85264206 0.31750363 1.9268838
0.95165765 0.31753325 1.9290762
1.0154548 0.31771493 1.9342114
-1.1439474 0.18863116 2.0771079
-1.0267106 0.18776147 2.076381
-0.94973803 0.186854 2.0729787
-0.85128945 0.18557289 2.0705013
-0.75609738 0.1889123 2.0763021
-0.64648455 0.18952054 2.0787356
-0.55588961 0.19161934 2.0815866
-0.45268071 0.19165318 2.0800796
-0.35027459 0.19435912 2.0870523
-0.26496434 0.19531697 2.0837166
-0.19236727 0.19716677 2.0900002
0.71587139 0.19506985 2.0900002
0.86855078 0.19819804 2.0900002
-1.1218624 0.21969451 2.0300553
-1.0392952 0.22010808 2.0263608
-0.95161724 0.21891166 2.0279686
-0.84972548 0.21827191 2.0256264
-0.74800861 0.21944202 2.0313063
-0.65035856 0.22180854 2.0333264
-0.54838681 0.22382903 2.0364249
-0.44968855 0.22500098 2.0370049
-0.34894931 0.2265196 2.0411098
-0.24903244 0.2295426 2.0421314
-0.15119649 0.23601626 2.0462158
-0.092305303 0.23868836 2.0427668
0.68614578 0.24619573 2.0313632
0.7496686 0.23506995 2.0452049
0.85000688 0.23659335 2.0470898
0.94867992 0.24312794 2.0450261
1.0458949 0.24377888 2.0508621
1.1040368 0.22057876 2.0835001
-1.1097792 0.097685829 2.1830001
-1.0445564 0.092640661 2.1915138
-0.97373718 0.098312303 2.1970003
-0.70561749 0.095573992 2.1923335
-0.64646989 0.064961016 2.1554604
-1.2113031 0.1278525 2.1714282
-1.1576867 0.14426841 2.1352789
-1.0473946 0.13645141 2.1518273
-0.95082945 0.13788253 2.1517098
-0.84948146 0.13835917 2.1511075
-0.74977797 0.14486413 2.1463504
-0.65148211 0.14175713 2.145221
-0.55065221 0.14890525 2.1487627
-0.44997779 0.15218382 2.1502461
-0.34922239 0.15750904 2.1553991
-0.24621813 0.1601707 2.1487515
-0.15027265 0.16841523 2.1519976
-0.094549872 0.17156623 2.1431599
0.76846713 0.17193738 2.1436069
0.84953308 0.16794743 2.1489542
0.94806451 0.16703101 2.155725
1.048133 0.17228276 2.1603553
1.1257551 0.16954839 2.1747272
-0.13093008 0.20482503 2.1029065
-0.096321613 0.20417623 2.102
0.77751112 0.20417625 2.102
0.84103125 0.2029662 2.1019998
0.96491104 0.207076 2.1061993
1.0497911 0.20718534 2.1084042
1.1097434 0.20583108 2.1128335
-0.32201502 -0.02356798 2.2820835
-0.29266015 -0.0067916014 2.2721431
-1.0258713 0.084611237 2.2138815
-0.94269776 0.079161115 2.2326617
-0.84619558 0.070619017 2.249542
-0.75656849 0.074335165 2.253746
-0.62994438 0.077925332 2.2521303
-0.55262822 0.080721065 2.2582867
-0.44930324 0.079664975 2.2586572
-0.35456273 0.082888022 2.2641404
-0.25791901 0.063360266 2.2625191
-0.15302679 0.09015166 2.274919
0.79886943 0.095066115 2.2550001
0.85307372 0.084977351 2.274857
0.94443178 0.0877802 2.2764435
1.0366497 0.089943446 2.2746377
1.1026324 0.09701331 2.2550001
-1.2376336 0.10543791 2.2196002
-1.0648283 0.10275719 2.2110002
-0.90827352 0.10275719 2.2110002
-0.83419627 0.10332997 2.211
-0.76241571 0.10527153 2.2132099
-0.62207586 0.10551715 2.2177196
-0.54768997 0.10701513 2.2150531
-0.44011283 0.11007214 2.2207723
-0.34979728 0.11119649 2.2227623
-0.25420949 0.11253522 2.2273805
-0.14896289 0.11728304 2.2305982
-0.098128915 0.12796867 2.2180002
0.78943735 0.12275067 2.218729
0.85179955 0.11664536 2.2307007
0.95030046 0.11635517 2.2324708
1.052075 0.12130474 2.23684
1.1236079 0.131313 2.2281365
-0.61290532 -0.0044456264 2.3614733
-0.53952879 -0.0092076743 2.3839321
-0.47382084 -0.0060269204 2.3928378
-0.35195851 -0.012060673 2.3637934
-0.24782737 -0.00036844597 2.3970001
-0.80263293 0.033012208 2.3000002
-0.7447449 0.034894578 2.3088894
-0.62821293 0.02964101 2.3264403
-0.54969251 0.031373151 2.3346498
-0.45076469 0.031144423 2.3410552
-0.34946433 0.036795266 2.33887
-0.234953 0.035864379 2.3434882
-0.15273681 0.046790063 2.3451343
0.87184203 0.054530751 2.3236423
0.94353735 0.057682447 2.3126965
1.0071453 0.071562611 2.2999997
-0.54697305 -0.018436687 2.414
-0.44317096 -0.02063309 2.4222076
-0.34327739 -0.033435311 2.4518704
-0.25073776 -0.029995587 2.4537868
-0.1540821 -0.023542771 2.4521194
-0.22218879 0.0037979318 2.4139998
-0.14653642 0.0082782116 2.4155748
-0.099501334 0.0037979321 2.414
-0.16823421 -0.10124221 2.539
-0.31053501 -0.060878132 2.5020001
-0.23548709 -0.073140062 2.5115566
-0.15238212 -0.071513861 2.5220969
-0.098807588 -0.041433781 2.5020001
