# .PCD v0.7 - Point Cloud Data file format
VERSION 0.7
FIELDS x y z
SIZE 4 4 4
TYPE F F F
COUNT 1 1 1
WIDTH 631
HEIGHT 1
VIEWPOINT 0 0 0 1 0 0 0
POINTS 631
DATA ascii
-0.70982474 -0.50948638 1.2848033
-0.68510097 -0.51307082 1.2920005
0.65888768 -0.51106405 1.2887307
-0.71369237 -0.49183428 1.2938228
-0.69390684 -0.49694604 1.2970001
0.67246246 -0.48065293 1.2939365
0.15839346 -0.0057976902 1.292394
0.20860392 -0.0015168315 1.2961178
0.15468188 0.042295225 1.2817587
0.21045472 0.016673671 1.2944105
0.14759652 0.1045564 1.2950234
-0.63408703 -0.51454705 1.3133187
-0.54752946 -0.52122974 1.3488154
-0.4556292 -0.53137988 1.3810773
-0.38602078 -0.55771327 1.3957864
0.56356496 -0.52952611 1.372472
0.62283218 -0.5161677 1.3225296
-0.7183913 -0.43797696 1.3234104
-0.65032727 -0.45111376 1.3456745
-0.55898392 -0.46395418 1.3784049
-0.4844912 -0.4906106 1.3947631
0.58334905 -0.46947771 1.3837855
0.64176846 -0.44631448 1.3406627
-0.73443264 -0.35126004 1.37242
-0.66538119 -0.37643304 1.3862424
-0.59650713 -0.39761752 1.3980001
0.66349286 -0.35678616 1.3655491
0.70514905 -0.32677111 1.3438463
-0.76684457 -0.28897396 1.3963466
0.68540895 -0.27148208 1.3872433
0.71347028 -0.24608286 1.3740519
0.73017931 -0.17335525 1.3921483
0.071452014 -0.039274294 1.3709688
0.14819168 -0.04556546 1.3465887
0.25009426 -0.040229071 1.3480078
0.34682289 -0.035456028 1.3737427
0.40805194 -0.03305025 1.3969803
0.080799453 0.043915328 1.3651474
0.1297275 0.068701252 1.3170191
0.25230303 0.052279972 1.3352162
0.33280754 0.036493883 1.3784699
0.091826759 0.13100529 1.3873461
0.14711963 0.14973511 1.3446136
0.2369673 0.13564773 1.3744367
0.30270401 0.10393232 1.3970002
0.14737038 0.22784862 1.3843963
0.20385113 0.20283227 1.398
-0.072687775 -0.60277092 1.4923913
0.39582869 -0.60472304 1.494091
0.40505809 -0.60265625 1.4867501
-0.41844115 -0.51355082 1.4090288
-0.34619603 -0.53297573 1.4256427
-0.24965619 -0.54258251 1.4589303
-0.15734199 -0.56454265 1.48033
-0.083541952 -0.59025013 1.492944
0.39835969 -0.59647804 1.4946001
0.45717558 -0.54980403 1.4643694
0.51724821 -0.52948135 1.4170569
-0.53340811 -0.42288283 1.4160081
-0.44829229 -0.4481788 1.4347664
-0.35483956 -0.4558267 1.4672617
-0.26927832 -0.48060244 1.4868433
0.48124784 -0.46561858 1.4815639
0.54101574 -0.44484106 1.4364659
0.60165197 -0.40393099 1.404
-0.71465057 -0.30995321 1.4096509
-0.64158767 -0.33629602 1.4235283
-0.55006909 -0.3507272 1.4498962
-0.45990089 -0.36607099 1.4775671
-0.3865236 -0.39339948 1.4930781
0.49897847 -0.3981044 1.4960001
0.56121558 -0.35622963 1.4607606
0.61968845 -0.33547524 1.4179878
-0.80244493 -0.20820415 1.4356668
-0.74479192 -0.24579032 1.4352624
-0.65308517 -0.25491989 1.4668289
-0.56856233 -0.27893505 1.4854839
0.5842095 -0.2683439 1.4820549
0.64315051 -0.24545376 1.4391669
0.70515752 -0.20813517 1.4046577
-0.81192994 -0.13955316 1.4733808
-0.76043195 -0.16639772 1.4785032
-0.68439025 -0.18906191 1.4934077
-0.015869189 -0.11678598 1.4861245
0.050001826 -0.12292684 1.4661342
0.14985152 -0.12285244 1.4612511
0.24834569 -0.12107401 1.463276
0.34518448 -0.11743774 1.4689212
0.40338838 -0.1037447 1.4537694
0.5997389 -0.19916716 1.4960001
0.66438562 -0.1570963 1.463781
0.72053874 -0.13904829 1.4231207
-0.82666534 -0.090751238 1.4949372
-0.79798883 -0.098406762 1.4960001
-0.01214015 -0.063198373 1.4813011
0.030315267 -0.056211755 1.4315592
0.1500522 -0.092440538 1.4127698
0.25142327 -0.091017149 1.4160414
0.35568467 -0.08491651 1.4205028
0.43549106 -0.040488567 1.4179144
0.68557042 -0.073724508 1.4852492
0.73348337 -0.048234325 1.4559001
-0.002756713 0.0054539684 1.4960001
0.036354762 0.05080989 1.4488945
0.36930767 0.065764099 1.420442
0.43721938 0.047782011 1.4534035
0.76028001 0.042748798 1.4772923
0.062508196 0.14886127 1.4496127
0.10112577 0.19896454 1.4065001
0.26932922 0.17149399 1.4225122
0.34555572 0.14572224 1.4581035
0.4166351 0.11598696 1.4880716
0.78912556 0.12004462 1.4943105
0.80183208 0.13457079 1.4955627
0.08099068 0.24237083 1.465638
0.14654078 0.26592526 1.4198595
0.24662255 0.2468549 1.4527121
0.31895429 0.22025669 1.4873281
0.092844948 0.32431084 1.4865955
0.14649682 0.34758976 1.4600825
0.22282651 0.32360494 1.4820983
0.139754 0.41710269 1.4900023
-0.82640839 0.59851944 1.4960002
-0.77228421 0.59645039 1.4960002
-0.68301868 0.59916526 1.4960001
-0.81403309 0.60831803 1.4808291
-0.75086498 0.61133033 1.4833667
-0.64948499 0.61147368 1.4841678
-0.55143183 0.61413652 1.4857746
-0.44914734 0.61629564 1.4868711
-0.35129058 0.61704934 1.4881049
-0.24963005 0.61840534 1.4901302
-0.15166032 0.61948764 1.4905688
-0.051698655 0.62206954 1.4916192
0.047088105 0.62265426 1.4923836
0.14922218 0.62296283 1.4928714
0.24602607 0.62488365 1.494336
0.34971243 0.62548369 1.4936498
0.44848752 0.62657565 1.496001
0.53222829 0.62573159 1.4959996
0.773022 0.61739933 1.495109
0.8039726 0.61328846 1.4922943
-0.022870708 -0.60614818 1.5074887
0.053930476 -0.61029708 1.533254
0.15327357 -0.61662179 1.5635712
0.24917717 -0.62500906 1.5863088
0.33509737 -0.61322558 1.5480952
-0.2052265 -0.50367564 1.502
-0.13711333 -0.52438492 1.5124631
-0.048324566 -0.54757833 1.5317854
0.046571907 -0.55411661 1.5632594
0.13825621 -0.57594252 1.580647
0.23237699 -0.59689391 1.5930001
0.35889846 -0.55576491 1.5549073
0.41558826 -0.52904505 1.5151855
-0.32096151 -0.41514155 1.5068699
-0.24308924 -0.4397071 1.5219343
-0.15104085 -0.45143202 1.5514743
-0.059138834 -0.46824494 1.5758796
0.020221073 -0.48977041 1.5892955
0.3803345 -0.46462616 1.5793184
0.43743658 -0.44392022 1.5343828
-0.50158674 -0.3011305 1.5020001
-0.4346 -0.32583931 1.5138929
-0.34943983 -0.34873351 1.5352353
-0.25613499 -0.35767531 1.5682604
-0.17398828 -0.38066155 1.5848414
0.39755878 -0.39606223 1.5930002
0.46086696 -0.35548669 1.5566832
0.51672143 -0.33310944 1.5147556
-0.61753094 -0.21103367 1.50658
-0.54238737 -0.23807997 1.5221885
-0.45145568 -0.25199175 1.551877
-0.36062986 -0.27015865 1.5779529
-0.29056746 -0.29305699 1.5911214
0.089952409 -0.20443743 1.5855241
0.13318719 -0.20273016 1.5907723
0.48180503 -0.27159381 1.578308
0.54057276 -0.24491026 1.5364963
-0.7345314 -0.12522183 1.5141094
-0.64768893 -0.14750668 1.5337565
-0.55581856 -0.1574522 1.5661271
-0.47567302 -0.18076131 1.5854175
-0.10223417 -0.12688006 1.5853161
-0.052822459 -0.14007369 1.5437667
0.051203419 -0.17182358 1.5418353
0.15026571 -0.17226136 1.5436839
0.2508108 -0.16935973 1.5453123
0.32200477 -0.15393089 1.5224596
0.56410199 -0.15625538 1.559516
0.62001449 -0.13593201 1.5170408
-0.82663542 -0.040831342 1.5315821
-0.75103611 -0.051381629 1.551464
-0.6594274 -0.070244126 1.5765355
-0.59004861 -0.091937393 1.5911539
-0.044949152 -0.048942402 1.5477862
0.58554256 -0.072617844 1.5808109
0.6447612 -0.045251213 1.5399995
0.70398265 -0.0065847496 1.5034482
-0.83772916 0.030646805 1.5708566
-0.77220267 0.020990504 1.5862406
-0.023030581 0.04558279 1.5553836
0.0065435087 0.071275249 1.5141917
0.46077332 0.09747503 1.502
0.66590959 0.043693297 1.5639803
0.72484452 0.061344586 1.5203434
-0.010652641 0.13248608 1.5760005
0.018850116 0.15724531 1.5330914
0.38640323 0.183476 1.509746
0.43773323 0.15596254 1.5249212
0.69032961 0.10447216 1.5681478
0.75264853 0.12164012 1.5246004
-0.0023852328 0.20196244 1.5930001
0.038321443 0.25060755 1.5468328
0.29049534 0.28546894 1.5081816
0.35527882 0.25578138 1.5329993
0.42876205 0.23781602 1.5693765
0.82802224 0.27924904 1.5590527
0.066450909 0.3495129 1.547896
0.16258095 0.39282221 1.5041425
0.25802678 0.35864934 1.529534
0.33614296 0.33885223 1.5701315
0.40202937 0.30237833 1.5930001
0.83779669 0.34229431 1.5812925
0.083974101 0.44187063 1.5644672
0.14872356 0.45661947 1.5268384
0.24051745 0.4411298 1.5671071
0.3058047 0.40921611 1.592682
0.86009085 0.40141863 1.5930001
-0.83674532 0.56668496 1.5544865
-0.74844128 0.57153362 1.5473669
-0.65016395 0.57276863 1.5488677
-0.55085057 0.57305235 1.5510341
-0.45057482 0.57479227 1.5511696
-0.35022742 0.57622373 1.5551491
-0.250673 0.57787198 1.5570359
-0.15039253 0.57942933 1.5581431
-0.051322017 0.5801993 1.5603427
0.049566772 0.57934231 1.5615733
0.14582713 0.56619734 1.5625105
0.24951223 0.5810163 1.5644901
0.34916031 0.58200818 1.5633957
0.45058838 0.583812 1.5662191
0.5481807 0.58383602 1.5678637
0.6496523 0.58507025 1.5705209
0.75212562 0.58496034 1.566373
0.82445174 0.5814411 1.562081
-0.8124299 0.60243297 1.502
-0.72331476 0.60282922 1.5043796
-0.640903 0.60227901 1.5037844
-0.54456162 0.60399604 1.5046841
-0.4507235 0.60542589 1.5058659
-0.34850866 0.60605389 1.5082927
-0.25003219 0.6063574 1.5100962
-0.14835645 0.6074484 1.5105678
-0.050334163 0.60965067 1.5118349
0.051538959 0.60985088 1.5146545
0.15087655 0.61000431 1.5145391
0.25148478 0.61088479 1.5161201
0.35042208 0.61242694 1.5176842
0.44955438 0.61241162 1.5170118
0.55142576 0.61360365 1.5209088
0.65016383 0.61350965 1.5221152
0.74685425 0.61117756 1.5192926
0.81039602 0.60547501 1.5125762
0.26001874 -0.61063409 1.6038113
0.085668892 -0.51090634 1.6034256
0.15827784 -0.53194159 1.6159225
0.25173926 -0.55001235 1.6315305
0.31408283 -0.52918231 1.6100887
-0.10702474 -0.40386415 1.6023334
-0.038987897 -0.42509106 1.6118736
0.052116375 -0.44706959 1.6306661
0.14874505 -0.45214143 1.6606246
0.25468689 -0.46404821 1.676088
0.33653027 -0.4441047 1.630458
-0.22316079 -0.3153584 1.6074432
-0.14367785 -0.34137192 1.6222826
-0.051196594 -0.35093248 1.6506118
0.043146193 -0.36347368 1.6768032
0.12602001 -0.39022297 1.6893446
0.29670683 -0.3939673 1.6960001
0.35826728 -0.3552638 1.6564486
0.41639313 -0.3307139 1.6100695
-0.40831989 -0.20589438 1.6019731
-0.33920661 -0.22796227 1.6130991
-0.24973959 -0.248859 1.6372719
-0.15549111 -0.25749636 1.6705337
-0.065245211 -0.28131244 1.6879319
0.0016448305 -0.29525298 1.6960001
0.15903254 -0.21561509 1.6151609
0.23535511 -0.21722366 1.6263305
0.38152328 -0.26455662 1.68132
0.44122386 -0.24395446 1.6344603
0.50151235 -0.2076163 1.601
-0.52656746 -0.11490126 1.6060014
-0.44412628 -0.14210768 1.6223495
-0.35175616 -0.15149008 1.6539609
-0.26050174 -0.16920531 1.6797204
-0.17976628 -0.18578716 1.6873116
-0.096405029 -0.10531366 1.6010001
0.25474179 -0.19876847 1.6010003
0.46150684 -0.16315271 1.6549796
0.51931912 -0.13650228 1.6159565
-0.71234536 -0.0036263089 1.6021675
-0.64120018 -0.025237678 1.6125247
-0.54973382 -0.048445892 1.6343937
-0.45502436 -0.054598603 1.6697426
-0.37205422 -0.083207108 1.6871362
-0.10703958 -0.029417543 1.6570376
-0.084878668 -0.042276893 1.6206136
0.4960691 -0.098069184 1.6443334
0.55830497 -0.049612962 1.6206051
0.60231203 -0.0066994899 1.6020001
-0.80671704 0.050075747 1.6010001
-0.7279166 0.026159476 1.6094031
-0.65663153 0.016887104 1.6314991
-0.56250626 0.0094570098 1.6661707
-0.47591174 0.0047781519 1.685366
-0.10589076 0.032790534 1.685944
-0.070147425 0.052628446 1.6446079
0.57735872 0.028693374 1.6439688
0.61898476 0.049820762 1.6114399
-0.043219153 0.15064004 1.6452501
-0.023247888 0.24420673 1.6547242
0.0079587428 0.27058467 1.6118108
0.4417893 0.28232402 1.607134
-0.011762041 0.33089769 1.6819143
0.020719813 0.35591927 1.6335752
0.37348408 0.370168 1.6153816
0.42882016 0.34853056 1.6378521
0.82960552 0.37659273 1.609735
-0.92450708 0.49014536 1.6811574
-0.84923655 0.48937178 1.6798949
-0.74923283 0.48954025 1.6820564
-0.65215689 0.49114871 1.6817564
-0.55226123 0.49161634 1.6839256
-0.45197982 0.49278682 1.6858854
-0.35416457 0.49505717 1.6887045
-0.25653493 0.49623725 1.6916045
-0.16027477 0.49696216 1.6940612
-0.059078056 0.49669316 1.6959995
0.042477448 0.44669396 1.6463513
0.27870393 0.46849155 1.6109374
0.3453359 0.43996933 1.6423153
0.42163903 0.42312691 1.6785275
0.84765714 0.44783896 1.6375928
-0.90981644 0.51027077 1.6404899
-0.85104918 0.52208418 1.6315011
-0.75067228 0.52230191 1.6315112
-0.65038705 0.52311534 1.6311668
-0.54913557 0.52301288 1.6326274
-0.44952142 0.52593052 1.6358355
-0.34938398 0.5260089 1.6378739
-0.24937417 0.52810973 1.6408292
-0.14993237 0.52897203 1.6433302
-0.049921747 0.52969509 1.6445514
0.045194831 0.53326678 1.6372757
0.16133267 0.54982895 1.6081653
0.25365928 0.53991181 1.6301156
0.35043794 0.53385854 1.6450484
0.44958025 0.53459066 1.6462424
0.55020159 0.53656477 1.6469083
0.64898777 0.53955513 1.6475331
0.74964875 0.54084826 1.646849
0.8440212 0.53442478 1.6495786
0.19363637 -0.40665099 1.7040002
0.24638391 -0.42077121 1.7092507
0.06332463 -0.31811675 1.7118037
0.15225607 -0.34565327 1.7251382
0.25143215 -0.3503339 1.7434089
0.31596094 -0.32505664 1.7123153
-0.12312802 -0.21556346 1.7095685
-0.04550539 -0.23853412 1.7217383
0.047115769 -0.26108897 1.741799
0.14587264 -0.27681074 1.7648318
0.26002505 -0.2802501 1.7769533
0.34232122 -0.24858764 1.7291516
0.40229613 -0.20331633 1.7040002
-0.30963442 -0.10355481 1.7040002
-0.23888582 -0.12658158 1.713732
-0.15373605 -0.15022071 1.7338628
-0.074522801 -0.19506799 1.7378114
0.38585329 -0.18830663 1.7229707
0.40414596 -0.18065663 1.7039998
-0.41589057 -0.019742778 1.7075754
-0.34514365 -0.048203059 1.7195294
-0.25337899 -0.063920267 1.74682
-0.16269585 -0.073195755 1.7773688
-0.94447839 0.082923636 1.7644578
-0.46457377 0.0056237108 1.7040001
-0.10848685 0.082446247 1.7150933
-0.094129145 0.089720599 1.705875
-0.94108689 0.14987987 1.7803937
-0.10797044 0.1522162 1.7573618
-0.085086875 0.15764928 1.7245867
-0.94450653 0.20810485 1.7939992
-0.10901475 0.2179195 1.7871084
-0.069196686 0.25190276 1.7444385
-0.040826421 0.34945774 1.7440075
-1.0018711 0.42263508 1.794
-0.93906379 0.44501609 1.7525955
-0.84873575 0.44950199 1.7475222
-0.75097781 0.45047262 1.7458748
-0.64987165 0.45177466 1.7461159
-0.54967982 0.45478052 1.7461436
-0.44880256 0.45849413 1.7472358
-0.34960425 0.46174461 1.7463434
-0.25032437 0.46488449 1.7474554
-0.1504011 0.46699655 1.7470227
-0.048715882 0.46274585 1.7479134
0.014078726 0.47306687 1.7184652
0.37708828 0.48718861 1.7113178
0.45686233 0.47519395 1.737386
0.54971856 0.47181433 1.7514246
0.64873362 0.47237143 1.7528852
0.74963099 0.47416496 1.7553581
0.83441985 0.47428569 1.7558028
-0.21002007 0.50001705 1.7040001
-0.038159523 0.50119418 1.7040002
0.3782039 0.50103587 1.7039999
0.45831159 0.50055218 1.7039996
0.54841429 0.50256348 1.7043217
0.65166956 0.50364387 1.7049239
0.75115931 0.50588048 1.7094966
0.83055526 0.50267076 1.7045003
0.087600268 -0.23225456 1.8030001
0.24175218 -0.27222675 1.8049095
-0.12786521 -0.056080639 1.8036954
-0.92126793 0.17409515 1.8030002
-0.11790994 0.17098136 1.8030001
-0.93322432 0.25468558 1.808503
-0.10940266 0.26220778 1.8115113
-0.094373114 0.28299454 1.8082061
-1.0230083 0.37563512 1.8669317
-0.94199091 0.36096644 1.8477558
-0.84824491 0.37639752 1.8610322
-0.74974436 0.37847123 1.8623011
-0.65216404 0.37893561 1.866877
-0.55204749 0.38038608 1.8679541
-0.45028156 0.38285738 1.8702835
-0.35079545 0.38524985 1.8734357
-0.25019276 0.38760883 1.8765042
-0.14435647 0.37639034 1.8745317
-0.083135135 0.35901764 1.8326529
0.56622481 0.39003211 1.884061
0.65183014 0.39110327 1.88427
0.74784172 0.39139473 1.8853977
0.85151631 0.39435756 1.8874403
0.9329865 0.39586964 1.8904032
-1.0094446 0.40906605 1.819851
-0.9519487 0.40781584 1.8117218
-0.85178006 0.41020277 1.8106494
-0.74737853 0.41182661 1.8127937
-0.64633453 0.41028967 1.8175567
-0.54702663 0.41307685 1.8173362
-0.44988939 0.41410139 1.8195841
-0.34758893 0.41684079 1.8244359
-0.24874982 0.41777277 1.826697
-0.14977849 0.41890839 1.8271167
-0.070644625 0.42037973 1.8218609
0.49716163 0.43245944 1.8079001
0.55289549 0.42231017 1.8311948
0.65134805 0.42195106 1.8360715
0.75054932 0.42414233 1.8354106
0.84861863 0.427499 1.8367653
0.92310607 0.41730222 1.858153
-1.1065207 0.29746178 1.9920003
-1.07295 0.29593483 1.9890001
-0.94365627 0.29635492 1.9914298
-0.85448742 0.29538247 1.9883323
-0.74716198 0.29642802 1.9912024
-0.67101753 0.2980988 1.9920005
-0.50525111 0.29899076 1.9920001
-0.48116976 0.29899076 1.9920003
-1.1042657 0.30736974 1.9776365
-1.0537884 0.3302514 1.9433509
-0.93093014 0.32377917 1.9459972
-0.84992355 0.32598644 1.9437083
-0.74918258 0.32827216 1.9431771
-0.64995939 0.33032247 1.9463469
-0.5482403 0.33313593 1.9479511
-0.45099995 0.33669299 1.9473792
-0.35026371 0.33997643 1.9486171
-0.25146088 0.34324718 1.9454846
-0.15914428 0.34682411 1.9453759
0.57684165 0.35864997 1.9398905
0.65080792 0.35349143 1.9485025
0.75025696 0.35313752 1.9481964
0.84767711 0.35905901 1.9455297
0.94993848 0.36173278 1.95129
1.0155917 0.34468824 1.9746504
-1.1281502 0.25981522 2.0548422
-1.0425119 0.26408622 2.0512669
-0.94982105 0.26149639 2.0443802
-0.849536 0.26258999 2.0437996
-0.7510187 0.26601028 2.0445585
-0.65027797 0.27017379 2.0469525
-0.55040592 0.26984382 2.0496738
-0.45170799 0.27185753 2.0542383
-0.34935269 0.27325797 2.0546427
-0.25437972 0.27517438 2.0613909
-0.16689892 0.28162569 2.0599008
0.65984327 0.28354263 2.0608625
0.74971724 0.28128579 2.0653183
0.8475759 0.28255928 2.0655186
0.94709283 0.28602809 2.0703568
1.0470887 0.28881761 2.0739305
-0.61673695 0.30136877 2.0039999
-0.56390023 0.30159938 2.0040007
-0.42873895 0.30477795 2.0086772
-0.34524846 0.30467108 2.0089412
-0.23989089 0.30752668 2.0167222
-0.16454096 0.30710891 2.0152173
0.59576827 0.32212681 2.0076001
0.65086871 0.3111459 2.017396
0.74852329 0.310514 2.0156674
0.85184044 0.31381756 2.018048
0.94938123 0.31593254 2.0239894
1.0376804 0.3153007 2.0286865
-0.66538298 0.0850325 2.197
-1.2131523 0.18042272 2.1849997
-1.1495529 0.17712297 2.1796515
-1.0498103 0.18368657 2.1737864
-0.9484809 0.18208793 2.1716771
-0.85014969 0.18239838 2.171073
-0.75283283 0.18406236 2.181767
-0.64912063 0.18545276 2.180366
-0.5522151 0.18809626 2.1865017
-0.45474893 0.19195214 2.1854081
-0.35788 0.19198254 2.1880314
-0.26879233 0.19323571 2.1896658
-0.16053942 0.19654074 2.1970003
0.75955057 0.19696234 2.197
0.8268882 0.19696231 2.197
0.91491431 0.19696231 2.197
1.0736152 0.19758934 2.1872003
-1.2043135 0.20362513 2.1552005
-1.1671627 0.21622659 2.1215174
-1.0384721 0.21943355 2.1224718
-0.94695783 0.21450691 2.1203489
-0.84844697 0.21688709 2.1211596
-0.7503711 0.21919285 2.1268601
-0.65118319 0.22001588 2.1279638
-0.5518173 0.2205708 2.1338167
-0.44780755 0.22164978 2.1300809
-0.35167658 0.22348505 2.1394787
-0.24609922 0.22673002 2.1434538
-0.17338021 0.23183037 2.1453984
0.67785424 0.23966868 2.1377013
0.7504968 0.23164991 2.1478508
0.85084027 0.23283324 2.148248
0.95049828 0.23831087 2.1474211
1.0540967 0.24399802 2.148685
1.1162394 0.24585065 2.143244
-1.1229722 0.088206165 2.254694
-1.087485 0.086256601 2.2616882
-0.70799297 0.093936175 2.2750003
-0.65493435 0.059897672 2.2343152
-1.2497869 0.13940102 2.2502744
-1.1295005 0.13097957 2.2503829
-1.0531579 0.13606845 2.2459643
-0.95065784 0.13615519 2.2484686
-0.84856296 0.13827232 2.249141
-0.75048953 0.14121994 2.2471294
-0.65335023 0.14117499 2.2386727
-0.55130267 0.14806581 2.2510908
-0.45173752 0.15574031 2.2473936
-0.35041967 0.16231863 2.2487962
-0.24936102 0.16531911 2.2445586
-0.17354393 0.17205279 2.2435722
0.69479477 0.19397825 2.2163849
0.75397354 0.17496394 2.2422881
0.84771013 0.1707803 2.2467961
0.94617838 0.169458 2.2493236
1.0260431 0.18729593 2.2301421
0.6935491 0.20203583 2.2110002
0.87034148 0.20203583 2.2110002
0.97205442 0.2022745 2.2110002
1.0333017 0.20695485 2.2117109
-0.35338208 -0.013625369 2.3232989
-1.286985 0.094733685 2.3029089
-1.1772714 0.096635342 2.3039999
-1.046026 0.081262916 2.3206117
-0.94774938 0.075898752 2.3391659
-0.85146087 0.068160623 2.3580825
-0.76149017 0.074977189 2.3581581
-0.64175534 0.076992124 2.3564289
-0.55077714 0.078348465 2.3715808
-0.44907337 0.083055854 2.3747091
-0.34531096 0.068036996 2.3628132
-0.25807935 0.082004368 2.3464413
-0.18080781 0.088935688 2.3799794
0.78915107 0.093964867 2.3684001
0.82007432 0.089825079 2.3744907
-1.2848474 0.10570186 2.3
-1.1813147 0.1105975 2.3022854
-1.0290214 0.10601083 2.3000002
-0.95231152 0.10541373 2.3000011
-0.85339594 0.10697974 2.3006778
-0.76987743 0.10717162 2.3006675
-0.63531625 0.10866565 2.3076286
-0.54943877 0.10804186 2.3112495
-0.44620788 0.11314851 2.3201852
-0.34758675 0.11891218 2.3170004
-0.24559383 0.11948851 2.3141491
-0.17915188 0.12330364 2.331351
0.77190292 0.12702514 2.3188841
0.84794253 0.12219294 2.3234117
0.90544736 0.13227059 2.3050909
-0.61207122 -0.00038043541 2.4750001
-0.54668885 -0.0028314362 2.4822865
-0.42497885 -0.0038403352 2.4780004
-0.39228356 -0.0061331089 2.4434545
-0.82123697 0.035148736 2.4140005
-0.75541389 0.034315251 2.4251134
-0.62786514 0.0312794 2.4330268
-0.55115223 0.029961308 2.4422822
-0.45188937 0.035199326 2.4430206
-0.36943015 0.039337438 2.4292312
-0.24500288 0.045497138 2.4494212
-0.18004932 0.0551126 2.4504397
-0.51973784 -0.0086480873 2.5104251
-0.46515781 -0.010916702 2.509562
-0.32868648 -0.025239393 2.56195
-0.24939062 -0.02646371 2.5664129
-0.18784606 -0.021960499 2.5593932
-0.4466455 0.0039363825 2.5020001
-0.31146944 0.0076913787 2.5070665
-0.24479385 0.010728234 2.5066657
-0.18497118 0.01511735 2.510814
