# .PCD v0.7 - Point Cloud Data file format
VERSION 0.7
FIELDS x y z
SIZE 4 4 4
TYPE F F F
COUNT 1 1 1
WIDTH 635
HEIGHT 1
VIEWPOINT 0 0 0 1 0 0 0
POINTS 635
DATA ascii
0.56388944 -0.50899369 1.2761689
0.60010052 -0.50181597 1.2360001
0.58210886 -0.4623296 1.2786598
0.62066644 -0.44517055 1.2442052
0.59526563 -0.3925865 1.2950265
0.63614869 -0.35428938 1.2721717
0.66439551 -0.26050299 1.286237
0.68430495 -0.1892747 1.2960482
0.06251657 -0.018778393 1.283705
0.12470869 -0.019314645 1.2911549
0.062011335 0.036077533 1.2805276
0.1142062 0.017816992 1.2906578
-0.74111593 -0.53355229 1.3869798
-0.67273825 -0.55225319 1.3942413
0.47127599 -0.53002769 1.3733137
0.51963013 -0.5164758 1.3247224
-0.7736423 -0.49600571 1.3979998
0.48731676 -0.46805987 1.3847611
0.53672957 -0.44522727 1.3391778
0.56132776 -0.35472709 1.3569053
0.61168408 -0.32782155 1.3126397
0.58129722 -0.26151979 1.3793024
0.63122773 -0.2441836 1.3325292
-0.0092641264 -0.105933 1.3964996
0.049377017 -0.10825653 1.3914179
0.14840068 -0.10669628 1.3899446
0.23771009 -0.10519551 1.3950279
0.30573684 -0.10161775 1.3980001
0.5960961 -0.19141345 1.3962158
0.65399826 -0.15210107 1.3528781
0.7019726 -0.10857585 1.3224547
-0.017531572 -0.050964192 1.3715947
0.043362651 -0.061668701 1.3357129
0.15675043 -0.055962015 1.3319625
0.24967179 -0.048755318 1.351002
0.33933145 -0.048677064 1.3839427
0.67727679 -0.06023249 1.3742564
0.70831305 -0.037940174 1.3502113
-0.0097317798 0.03653232 1.3825018
0.035524454 0.064565256 1.3259916
0.15376213 0.053717062 1.3313017
0.24199668 0.041038007 1.3707492
0.31585103 0.012621941 1.3923173
0.69285059 0.014348955 1.3922452
0.71987915 0.047207888 1.3807781
-0.0024956476 0.10521189 1.3980001
0.05243171 0.14686085 1.3536694
0.13851461 0.1356381 1.3758839
0.20929757 0.10677308 1.3965709
0.74066663 0.12138444 1.3959068
0.054296415 0.21964285 1.3885105
0.1026897 0.20210795 1.3980001
-0.2390116 -0.60304254 1.4913332
-0.19730181 -0.6035006 1.4960001
0.33753735 -0.60291004 1.4939002
-0.72110248 -0.51059091 1.4080627
-0.64334226 -0.52898037 1.4198892
-0.54939944 -0.53874761 1.443321
-0.45084301 -0.54493606 1.4675161
-0.35628691 -0.5658139 1.4817873
-0.26907885 -0.58888292 1.4912889
0.37450475 -0.55341387 1.4726137
0.42329362 -0.53321391 1.4266214
-0.8041147 -0.41355777 1.4415331
-0.74764925 -0.44835037 1.4389
-0.65231335 -0.45405275 1.4648188
-0.55790865 -0.47267675 1.4812665
-0.47490743 -0.4919382 1.4938329
0.39241701 -0.48014745 1.4904821
0.44438717 -0.44737157 1.4446577
0.50223863 -0.40150627 1.404
-0.81513458 -0.35360411 1.478448
-0.76032639 -0.37285852 1.4834589
-0.68268389 -0.39202517 1.493793
0.46907258 -0.35617024 1.4612708
0.5155763 -0.33407471 1.4184639
0.48767343 -0.27022409 1.4839245
0.53594714 -0.24553815 1.4400183
-0.046092384 -0.136511 1.4582278
0.049609754 -0.14546019 1.4493494
0.15024824 -0.1440959 1.4499156
0.2513825 -0.13898863 1.4500035
0.31800324 -0.11884608 1.4293406
0.56332749 -0.15500182 1.4552763
0.612544 -0.12379502 1.4146193
-0.056783237 -0.051509377 1.4469932
0.37345695 -0.030911721 1.4054291
0.40040058 -0.034161832 1.4040002
0.58379239 -0.062595904 1.4796361
0.63166368 -0.042823315 1.4346467
-0.036287151 0.050698169 1.447107
0.27551562 0.079311617 1.4135579
0.3507247 0.052297629 1.4343553
0.59720987 0.0075139995 1.494091
0.65677553 0.04806003 1.4523642
0.70871133 0.078185983 1.4104904
-0.01972154 0.14537385 1.4577024
0.0060305386 0.17398922 1.4160874
0.16859964 0.17356835 1.4187301
0.25061551 0.15022902 1.447273
0.33756122 0.13078356 1.481442
0.67605615 0.12141906 1.4674473
0.7290355 0.14735237 1.4268514
-0.010107464 0.23424327 1.4808134
0.046891052 0.26018032 1.4286568
0.14829649 0.24851701 1.4521495
0.23173897 0.22526379 1.4832854
0.76236486 0.25053149 1.4657954
-0.0022399928 0.30334306 1.4960001
0.052466676 0.3439624 1.4682103
0.12623581 0.32318467 1.4849685
0.78391904 0.33416378 1.4842577
0.80349123 0.38233814 1.4918743
0.044706482 0.40735811 1.4930671
0.80556566 0.40108928 1.4959999
-0.81752992 0.59177077 1.4894686
-0.75398451 0.59359103 1.4871837
-0.65316093 0.59534043 1.490676
-0.54637402 0.59585387 1.4926622
-0.45179823 0.59598482 1.49349
-0.35105023 0.59673423 1.4940673
-0.24069171 0.59777552 1.4948075
-0.15234131 0.59784091 1.4950241
-0.053773478 0.59874368 1.495681
0.046470322 0.59866118 1.4959993
0.13039286 0.59837574 1.4952039
0.24932888 0.59916514 1.4959995
0.3294943 0.59916532 1.4960002
0.44243738 0.59916514 1.4959998
0.58423728 0.59916526 1.4959999
0.69145674 0.59916526 1.4960002
0.77699286 0.59624135 1.4911761
0.80506092 0.59437406 1.4914285
-0.81033969 0.60555863 1.4657567
-0.7486065 0.60777903 1.4671652
-0.64882541 0.6082809 1.4720366
-0.55066198 0.60799605 1.4729068
-0.45063359 0.60867834 1.4750066
-0.34908953 0.60835379 1.4752816
-0.25072032 0.60915887 1.4785953
-0.15042774 0.60965532 1.4797512
-0.050700061 0.6098963 1.4812638
0.049585819 0.6101526 1.4819405
0.15001932 0.61018866 1.4819057
0.25005668 0.61083317 1.483595
0.35024166 0.61099374 1.4840595
0.449444 0.61074924 1.4852253
0.55025053 0.61090755 1.4867202
0.65056467 0.61008757 1.4882288
0.74586648 0.60706925 1.4829928
-0.20392954 -0.6026786 1.5020001
-0.14152496 -0.60707408 1.5119871
-0.047292802 -0.61039078 1.5338701
0.050974317 -0.61468005 1.5564853
0.15107305 -0.61873913 1.5753051
0.25037649 -0.62030166 1.5730231
0.31249174 -0.60827738 1.5190343
-0.41094732 -0.50678271 1.502474
-0.34030217 -0.52283454 1.5124121
-0.24629836 -0.54347557 1.5243044
-0.15021861 -0.5515117 1.5430028
-0.053607188 -0.55635107 1.565382
0.044293884 -0.57367837 1.5786661
0.13701828 -0.58860534 1.5873166
0.28204736 -0.56209528 1.5747415
0.32839841 -0.54440254 1.5319122
-0.62080127 -0.40844473 1.5040084
-0.54182953 -0.42686728 1.5124686
-0.44799659 -0.44669482 1.5274442
-0.35067335 -0.45145008 1.5516542
-0.25566119 -0.46055803 1.5714113
-0.15969896 -0.47975248 1.5847689
-0.086569473 -0.49434596 1.5929995
0.29529586 -0.49474722 1.5902781
0.35358921 -0.45149782 1.5475659
0.40456581 -0.41523474 1.5060297
-0.81797063 -0.31029323 1.5065607
-0.74092871 -0.32857516 1.5163673
-0.64859825 -0.34787554 1.5304714
-0.55014682 -0.35074124 1.5547364
-0.45535639 -0.36586955 1.5737576
-0.36287084 -0.38596943 1.5868603
-0.29675505 -0.3991572 1.5930001
0.37585118 -0.35916293 1.5659969
0.42163846 -0.34160352 1.5239154
-0.8297267 -0.24651568 1.5409119
-0.75158638 -0.2522586 1.5596573
-0.65498489 -0.26607329 1.5755579
-0.57392234 -0.28482667 1.588544
-0.12242697 -0.20515035 1.5587763
-0.041791804 -0.21350574 1.5546834
0.047272801 -0.21851104 1.5641146
0.14805672 -0.21635056 1.566399
0.22108164 -0.21529649 1.5730636
0.39262006 -0.2836298 1.5855173
0.44637764 -0.24801229 1.5434479
-0.84855145 -0.17373674 1.5815635
-0.78024578 -0.191118 1.5884632
-0.12430735 -0.15508553 1.5528636
-0.064048946 -0.1773178 1.5187567
0.049028199 -0.18830761 1.5158255
0.14958645 -0.18776774 1.518908
0.24198668 -0.18311056 1.5209349
0.47142637 -0.15757209 1.5614274
0.51736087 -0.13574803 1.5202979
-0.11182746 -0.058316816 1.5681872
-0.089813784 -0.041657649 1.5255778
0.48847669 -0.07551156 1.5832976
0.53921711 -0.045699488 1.5403895
-0.1039872 0.012860063 1.580233
-0.077145085 0.053910341 1.5437658
0.56708145 0.039835788 1.5512607
0.61271769 0.070558682 1.5127199
-0.057743043 0.150139 1.5464666
0.29670519 0.19885573 1.5020001
0.35263756 0.17443053 1.5159471
0.63046294 0.11065729 1.5145565
-0.035433423 0.25143588 1.5486249
0.19459613 0.293589 1.5032356
0.25937873 0.26415268 1.521818
0.34036323 0.24660245 1.5541497
0.74909317 0.28959683 1.5044909
-0.017222855 0.34449077 1.555323
0.029694302 0.37413791 1.5129552
0.15856694 0.35981986 1.5249164
0.24362773 0.34357175 1.5619706
0.3190046 0.31707492 1.5857829
0.76079315 0.35846481 1.527235
0.80187929 0.3979423 1.5020001
-0.0073835561 0.4325127 1.5793501
0.047875069 0.4503015 1.5351551
0.14408638 0.43684763 1.563827
0.21412033 0.41329005 1.5878543
0.77290875 0.4432922 1.5584255
0.80886674 0.45614079 1.5201612
-0.83774096 0.55266666 1.5547657
-0.74855191 0.55875832 1.5464793
-0.6499483 0.56089544 1.545693
-0.55085921 0.56200486 1.5460466
-0.45003805 0.56287217 1.5462915
-0.35002473 0.56456006 1.5470361
-0.25030991 0.56690443 1.5465037
-0.14975952 0.56810105 1.5473489
-0.050671551 0.5693841 1.545928
0.048422448 0.56484747 1.5504937
0.14938572 0.57117563 1.547043
0.24964243 0.5712834 1.5465782
0.34969804 0.5712465 1.5464129
0.44929203 0.57138747 1.5482826
0.5492171 0.57379144 1.5479084
0.6501072 0.57464814 1.5481275
0.75039673 0.57124114 1.5473021
0.81972402 0.55123419 1.5554098
-0.28758481 0.60156834 1.5020001
0.071678944 0.60156828 1.502
0.17997688 0.60156828 1.502
0.24093498 0.60156834 1.5020001
0.3563025 0.60180753 1.5025997
0.46379963 0.60156828 1.502
0.54838169 0.60265529 1.5039396
0.64041913 0.60253733 1.5034996
0.72924834 0.60156828 1.5020002
0.19759981 -0.60208046 1.601
0.22754575 -0.60685414 1.6029441
-0.0281225 -0.51022536 1.6040226
0.055331163 -0.52583534 1.6114035
0.15280738 -0.5415656 1.622629
0.23749885 -0.54486173 1.6263857
-0.23323762 -0.41570434 1.6059514
-0.14499812 -0.43317199 1.6183145
-0.049893718 -0.44917023 1.6327292
0.04914093 -0.45134348 1.6550621
0.14628752 -0.45706326 1.6734072
0.2575427 -0.45551962 1.6535747
0.31095657 -0.42688408 1.609612
-0.50100732 -0.30254576 1.6010002
-0.43929467 -0.31892291 1.6089681
-0.34654456 -0.33965933 1.621102
-0.25064439 -0.35084087 1.642221
-0.15184432 -0.3538914 1.6644812
-0.05665582 -0.36877292 1.6796907
0.037331253 -0.387252 1.6923287
0.10619973 -0.39677426 1.6960001
0.28079894 -0.36382917 1.6771772
0.33100972 -0.34253687 1.6318684
-0.70857882 -0.20758709 1.6014007
-0.64138716 -0.21866883 1.6097757
-0.54566008 -0.24275219 1.623453
-0.45055419 -0.25049308 1.6470408
-0.35370162 -0.25588927 1.6704863
-0.25921267 -0.27552736 1.6837538
-0.18312539 -0.29319942 1.693647
0.081718013 -0.24399202 1.6055808
0.15289325 -0.24731457 1.615694
0.22798041 -0.24909946 1.6294855
0.35499343 -0.25191411 1.6510334
0.40734738 -0.2194189 1.6052477
-0.90311319 -0.10202868 1.6146666
-0.84266806 -0.12718777 1.6129282
-0.74698985 -0.14711991 1.6243155
-0.65030992 -0.15089208 1.647498
-0.55442077 -0.15723801 1.6726768
-0.4591544 -0.17833306 1.6863195
-0.38605556 -0.19604617 1.6959995
-0.14758946 -0.12196673 1.6101108
0.37676844 -0.17737454 1.6627325
0.42685938 -0.14700906 1.6182747
-0.91094327 -0.045256745 1.643382
-0.85111099 -0.058573019 1.6507494
-0.75320929 -0.063347742 1.6726321
-0.65651929 -0.082043156 1.6873044
-0.58873028 -0.09828461 1.6959999
-0.1437591 -0.043911271 1.6424
0.47548997 -0.044438262 1.6145359
0.50393069 -0.011057936 1.6040007
-0.12417693 0.047483664 1.6489643
-0.097631551 0.083150141 1.6038971
0.48712724 0.016764423 1.6403484
0.51692271 0.032718562 1.6104472
-0.1125626 0.14350373 1.6692237
-0.088034406 0.15881634 1.623542
-0.10484257 0.21471488 1.6867577
-0.076611608 0.25265571 1.6425787
0.3781901 0.28693184 1.6024811
-0.055717207 0.35069349 1.6473923
0.28032771 0.38174763 1.6080865
0.34447294 0.35621107 1.6222115
-0.91996151 0.48154178 1.6728134
-0.84853369 0.48168465 1.669302
-0.75130737 0.48159829 1.6721443
-0.65034884 0.48161116 1.6697537
-0.55087543 0.48268199 1.670333
-0.44992796 0.48354456 1.6722591
-0.35050401 0.48492208 1.67515
-0.24967188 0.48718029 1.6755692
-0.15048899 0.48774043 1.678481
-0.046637721 0.46512368 1.6590296
0.033546954 0.49652073 1.6010002
0.17231774 0.48086977 1.6200805
0.25536981 0.45684537 1.6464164
0.34131837 0.46318793 1.6737263
0.44976506 0.48955002 1.6812482
0.548024 0.48970807 1.6822639
0.64740539 0.49021113 1.6821446
0.74277139 0.48550433 1.6582084
-0.90741211 0.50550878 1.6243669
-0.84821719 0.51344395 1.6194762
-0.74886554 0.51312578 1.6194916
-0.65010536 0.51455051 1.6192371
-0.54904097 0.51508182 1.6195743
-0.44932246 0.51652718 1.6228553
-0.34994799 0.51672 1.6233772
-0.24962299 0.51859725 1.6254485
-0.14926119 0.51942664 1.6264042
-0.051056407 0.52009791 1.6244557
0.057730164 0.52560478 1.6062617
0.15370788 0.52369416 1.6221449
0.24948981 0.52141798 1.629289
0.35005289 0.52183777 1.6283092
0.45125556 0.52164632 1.6301595
0.55000019 0.52360952 1.6280761
0.6496287 0.52514672 1.6306994
0.7471205 0.52388442 1.6283839
0.80793935 0.53103095 1.6065282
0.1723453 -0.41196215 1.7046682
0.22017014 -0.42051452 1.7090154
-0.12417558 -0.3076303 1.7044493
-0.042516366 -0.32240903 1.7124828
0.052790485 -0.34022143 1.7237566
0.15037699 -0.3504366 1.7391891
0.23815235 -0.34352893 1.7360381
-0.32535076 -0.21021181 1.7060181
-0.24287367 -0.23028548 1.7177444
-0.15352906 -0.25869986 1.725158
-0.054704502 -0.27514893 1.7391932
0.042309668 -0.28490007 1.7592152
0.14643586 -0.29375309 1.7739151
0.2703265 -0.27293596 1.7377791
0.31321412 -0.22684698 1.7099315
-0.53007895 -0.11133864 1.7068409
-0.44497809 -0.13164596 1.7186363
-0.34983897 -0.14915772 1.7359909
-0.251652 -0.15272652 1.761163
-0.1899012 -0.16390969 1.7705591
0.33440113 -0.19743069 1.7040001
-0.70513153 -0.039184339 1.70755
-0.64297491 -0.052823581 1.7082093
-0.55118024 -0.072590016 1.7241876
-0.45380098 -0.076459765 1.7476383
-0.34939983 -0.082440101 1.7766296
-0.28281987 -0.089069143 1.7908131
-0.17062949 -0.0034858435 1.7126366
-0.15659206 0.056883108 1.7207465
-0.14640108 0.1527231 1.7490462
-0.12423421 0.24960841 1.7521996
-0.095381394 0.28752404 1.7049476
-0.93261951 0.39859498 1.7939997
-0.83825159 0.39854357 1.7939997
-0.77469671 0.39885148 1.7940003
-0.66695052 0.39939827 1.7940003
-0.11225969 0.33121526 1.7677579
-0.088712089 0.35749874 1.7249583
-1.0021809 0.40807334 1.794
-0.93864965 0.43123996 1.7477655
-0.85118252 0.43363646 1.7469356
-0.74985558 0.43284237 1.7458748
-0.64963084 0.43367195 1.7460406
-0.54984379 0.43563381 1.7470742
-0.44989264 0.43863925 1.7471555
-0.34980169 0.44082987 1.7467461
-0.24999262 0.44451639 1.7474908
-0.14933941 0.44497275 1.7473524
-0.077392213 0.44873258 1.7348729
0.36705443 0.46093196 1.7175137
0.45213044 0.44988084 1.7467827
0.54988974 0.44723234 1.7491695
0.64997649 0.44955978 1.7472571
0.74677289 0.45030087 1.7503819
0.81852853 0.43836549 1.7771696
-0.21746746 -0.10518806 1.8038828
-0.18777816 -0.11111026 1.8089664
-1.0111325 -0.007832923 1.8557838
-0.98792565 -0.0085914806 1.8528507
-0.30162358 -0.068780541 1.8030001
-0.24426202 -0.085350037 1.8081375
-0.19218367 -0.089620389 1.8175123
-1.0115013 0.047545552 1.8585833
-0.98753124 0.052443687 1.8649552
-1.0067699 0.14128296 1.8796247
-0.9864614 0.14757769 1.8868006
-0.16974723 0.17974325 1.8050834
-1.0032161 0.20403537 1.8930001
-0.98719686 0.20675968 1.8930005
-0.15857163 0.25432971 1.8252348
-1.0213553 0.36078674 1.8615626
-0.95144498 0.3680656 1.8497819
-0.85140055 0.36619037 1.8481059
-0.75034022 0.36853653 1.8473192
-0.65066361 0.36932364 1.8496023
-0.55034029 0.37066332 1.850996
-0.45017692 0.37270349 1.8540336
-0.34968081 0.37432015 1.8561376
-0.24986832 0.37567154 1.8588396
-0.15569012 0.36723515 1.8486873
0.47042197 0.38204867 1.859404
0.54944259 0.37782392 1.8591744
0.65111423 0.37880349 1.8594794
0.74778956 0.37744588 1.8624082
0.84532243 0.37769717 1.8684999
0.91128677 0.37445974 1.8898932
-1.0053403 0.40295884 1.8030001
-0.96564829 0.40220037 1.8045
-0.86288446 0.40334806 1.8029999
-0.73963028 0.40140197 1.803
-0.62972498 0.40232444 1.8030005
-0.54143441 0.40291688 1.8046447
-0.45007393 0.4039073 1.8069998
-0.34646904 0.40581587 1.8084915
-0.25059551 0.40755484 1.8091412
-0.15566407 0.40834448 1.8092784
0.46103555 0.40931451 1.8115948
0.54921961 0.40709817 1.8101987
0.65134543 0.40953794 1.8119076
0.75438637 0.40935999 1.8138963
0.832461 0.41055858 1.8172354
-0.9755761 0.19369802 1.9038461
-1.1080259 0.28417307 1.987167
-1.0467474 0.27369708 1.960149
-0.96510708 0.26895764 1.9515426
-0.84972948 0.28469136 1.975337
-0.75113112 0.28531528 1.9741681
-0.65194887 0.28735876 1.9792511
-0.54963917 0.29065162 1.9836609
-0.46170831 0.29168382 1.9830471
-0.34234288 0.28923261 1.9824126
-0.2544848 0.29071534 1.9841919
-0.19049272 0.28774494 1.9664059
0.55405325 0.29519632 1.990447
0.65123504 0.2958453 1.9907306
0.75313866 0.29524288 1.9896624
0.83622253 0.29787782 1.9920003
0.93332368 0.29784402 1.9920005
-1.0436904 0.31857026 1.930705
-0.94765526 0.31756699 1.9220239
-0.84833938 0.31663772 1.9267513
-0.74878681 0.31867859 1.9243598
-0.64785326 0.31877556 1.9289386
-0.54732037 0.32088754 1.9328476
-0.44732401 0.32312059 1.9338188
-0.34964478 0.32514396 1.9396796
-0.24855317 0.32552826 1.9394159
-0.18441877 0.33086431 1.9271058
0.48448396 0.33873144 1.9260927
0.55011547 0.32759851 1.9414108
0.64953357 0.32841292 1.9402508
0.75075769 0.32793984 1.9403982
0.85031497 0.32950008 1.9446324
0.93290001 0.32990053 1.9487581
-1.128526 0.23934583 2.0503139
-1.0412164 0.23684292 2.0476918
-0.94964778 0.23846214 2.0474665
-0.84915292 0.23977563 2.0465758
-0.75049448 0.24201244 2.0486319
-0.64998597 0.24567221 2.0465579
-0.55168796 0.25128466 2.042058
-0.44810387 0.25552094 2.0413959
-0.35050896 0.25357103 2.0460968
-0.25000685 0.25749001 2.0458126
-0.19558167 0.26095665 2.0398459
0.55909938 0.26191872 2.0432382
0.6513617 0.26434347 2.0439005
0.74836767 0.26314229 2.0444655
0.85051328 0.26631513 2.0449045
0.94998914 0.26669914 2.0492623
1.0185155 0.2613782 2.0606661
0.89164692 0.30079192 2.0040002
0.97275597 0.30387941 2.0067275
1.0067462 0.30622178 2.0149093
-1.2125499 0.16333959 2.1801503
-1.1625842 0.17588554 2.1561737
-1.045965 0.16901657 2.1604519
-0.94853991 0.17029567 2.153652
-0.84878492 0.16949278 2.1541638
-0.75118887 0.17117997 2.1604116
-0.65153915 0.17388345 2.1597102
-0.55232966 0.1740578 2.1595783
-0.45222333 0.17658502 2.1605997
-0.34648886 0.17696893 2.158823
-0.25624183 0.17848527 2.1717978
0.58796889 0.18884045 2.1606991
0.65093404 0.18231304 2.1701882
0.74861979 0.18261981 2.1710763
0.85025448 0.17943357 2.1768796
0.92223907 0.19012225 2.1569297
-1.1602119 0.20645587 2.1089993
-1.0358069 0.20562108 2.1098804
-0.95167059 0.20355101 2.1043394
-0.85892606 0.20479392 2.1040723
-0.74813551 0.20617852 2.110044
-0.64603209 0.20714334 2.1077015
-0.54707295 0.21125624 2.1133847
-0.44700751 0.21216391 2.1135483
-0.35277092 0.21360022 2.115581
-0.2499112 0.21627837 2.1223168
0.57620388 0.21602073 2.1146758
0.65135151 0.21890189 2.1198025
0.75132948 0.21715823 2.1187313
0.84827566 0.21765482 2.1199358
0.94250375 0.21922411 2.1189294
1.0048286 0.22595721 2.102
-0.66792274 -0.0092548812 2.2827778
-1.2598302 0.089768283 2.2739284
-1.1267353 0.089762084 2.2809477
-1.0487545 0.089640133 2.2736375
-0.94666779 0.090738021 2.2803566
-0.85322696 0.09318693 2.2801683
-0.73476648 0.087480105 2.2850022
-0.67899173 0.063033924 2.2833784
-0.54728043 0.097765826 2.2850001
-0.48683175 0.098303966 2.2850001
0.75954831 0.09633334 2.2820003
-1.2373178 0.12565854 2.2344861
-1.1277412 0.12232839 2.242161
-1.050087 0.12047441 2.2312984
-0.95050514 0.11978393 2.2322273
-0.84953356 0.11842158 2.2379088
-0.75032079 0.12156173 2.2403059
-0.65139312 0.12425824 2.2442892
-0.55015934 0.12478336 2.2416909
-0.44987252 0.12832868 2.2474756
-0.35336992 0.13048983 2.2464812
-0.26272914 0.13194735 2.2478867
0.59999806 0.16767015 2.2110002
0.6543715 0.14034331 2.2444775
0.75247347 0.13500559 2.2477965
0.82594872 0.14101472 2.2243946
-1.2395802 -0.016846942 2.3856668
-1.1224501 -0.011585473 2.3512027
-1.0986705 -0.0097068455 2.3378184
-0.65054935 -0.031804845 2.333885
-0.34558371 -0.049758479 2.3681927
-0.29748982 -0.00036337349 2.3640001
-1.3171066 0.043173239 2.366775
-1.2359483 0.040172216 2.3582692
-1.1488062 0.044369061 2.3392649
-1.052817 0.044146631 2.3445506
-0.95176345 0.048654281 2.3459513
-0.84885752 0.052011825 2.3415422
-0.75634247 0.057347417 2.3341718
-0.65100825 0.053951878 2.3462715
-0.55204964 0.06254705 2.3452823
-0.45167038 0.066356517 2.344897
-0.34738126 0.0672668 2.3468597
-0.26645142 0.059781831 2.330889
0.67762113 0.083358064 2.3330941
0.72388083 0.082059018 2.3231595
-0.41257146 0.10292138 2.3000004
-0.33481434 0.10593061 2.3
-0.26648593 0.10468679 2.2999995
0.66771859 0.10717272 2.3029642
0.7213248 0.10618419 2.2999995
-1.2344494 -0.0088235009 2.42693
-1.1273456 -0.017665904 2.4221859
-1.0478508 -0.016887063 2.4366016
-0.94926184 -0.024895543 2.4486475
-0.85389543 -0.025552699 2.4635396
-0.7738263 -0.014285093 2.4563804
-0.64043397 -0.020670936 2.4599173
-0.54774743 -0.013824614 2.4635098
-0.45626169 -0.012670007 2.4745281
-0.36594182 -0.015940035 2.457154
-0.27275115 -0.0049597868 2.4753108
-1.3467567 0.012779356 2.4153075
-1.2270118 0.0064876038 2.4140007
-1.1480026 0.0037979321 2.414
-1.0460126 0.005724139 2.4153085
-0.9533689 0.00783988 2.4147856
-0.84481359 0.0093432302 2.4162815
-0.7755121 0.012450495 2.4193435
-0.63798207 0.013334043 2.4188356
-0.54712021 0.01524534 2.4217823
-0.44680917 0.017491201 2.4300003
-0.36306268 0.020334791 2.426383
-0.26650164 0.009841864 2.427489
-0.8172307 -0.051644996 2.5074284
-0.76102036 -0.050374787 2.509728
-0.62190688 -0.059353586 2.5191081
-0.5505842 -0.060781326 2.5338073
-0.45211643 -0.056360789 2.5273917
-0.3319189 -0.058933664 2.567924
-0.28183669 -0.044666573 2.5362384
-0.32850179 -0.10633142 2.6393161
-0.29131299 -0.1033283 2.6370003
-0.33828899 -0.091231197 2.6206357
-0.28785944 -0.092035264 2.626334
