# .PCD v0.7 - Point Cloud Data file format
VERSION 0.7
FIELDS x y z
SIZE 4 4 4
TYPE F F F
COUNT 1 1 1
WIDTH 635
HEIGHT 1
VIEWPOINT 0 0 0 1 0 0 0
POINTS 635
DATA ascii
0.56102008 -0.5087586 1.275151
0.58067948 -0.46075583 1.2758843
0.61930448 -0.44405058 1.2392863
0.59386361 -0.38870785 1.2938589
0.63327086 -0.35288739 1.2694324
0.65962702 -0.25902826 1.2834402
0.68152142 -0.18277007 1.2938126
0.066682287 -0.018013015 1.280954
0.14296123 -0.018591331 1.2867184
0.06734702 0.044046152 1.2725447
0.13155194 0.029146576 1.2849869
0.061451621 0.1063228 1.2955298
-0.73838854 -0.52985173 1.3849119
-0.66587621 -0.5488866 1.3931855
0.47147232 -0.52973181 1.3719432
0.51857793 -0.5160808 1.3231052
-0.76345581 -0.49296251 1.3975596
0.48717371 -0.46814689 1.3834099
0.53475875 -0.44496629 1.3382694
0.55931568 -0.35355547 1.3547833
0.60920805 -0.32364762 1.3100471
0.58037722 -0.25938535 1.3765559
0.62765682 -0.24331813 1.3288931
-0.0047758706 -0.10349558 1.398
0.047546152 -0.10501587 1.3938533
0.14680153 -0.10467015 1.3926953
0.24009667 -0.10379352 1.3960391
0.59481525 -0.18573116 1.393696
0.65037555 -0.15044186 1.3493791
0.70083809 -0.10369065 1.317
-0.013403284 -0.05134394 1.3808309
0.042743184 -0.058933225 1.3403265
0.15396269 -0.065257251 1.3377261
0.24966414 -0.048280638 1.3405851
0.34613085 -0.044257842 1.3690048
0.40456998 -0.022667777 1.3860387
0.6741634 -0.057634823 1.3689506
0.70676976 -0.034079559 1.3426665
-0.0060737734 0.026117597 1.3892299
0.024582302 0.057265431 1.3383799
0.1623088 0.064484723 1.3188937
0.24878818 0.048771922 1.3543549
0.3367686 0.028042182 1.3839762
0.40326908 0.008517758 1.3935001
0.68908381 0.02031884 1.3877271
0.71589082 0.051958993 1.3748988
0.055827677 0.14802022 1.3441373
0.14532594 0.14444125 1.3625515
0.22473392 0.1198169 1.3883811
0.73446268 0.13129158 1.3914548
0.063906327 0.22990967 1.3824699
0.11895552 0.21052627 1.393438
-0.20023587 -0.60196251 1.4890001
-0.14976433 -0.60480195 1.4951113
0.34027824 -0.60319293 1.4946002
-0.71269143 -0.50683844 1.4075392
-0.64118069 -0.52451974 1.4163822
-0.54918206 -0.53733051 1.4358263
-0.44954911 -0.5424515 1.4601436
-0.3542456 -0.55597234 1.4768031
-0.25807926 -0.57903552 1.4878629
-0.18168467 -0.5931167 1.4940375
0.37596631 -0.55380386 1.4731659
0.42333901 -0.53339702 1.4269127
-0.80345786 -0.40926364 1.437909
-0.74666965 -0.44621125 1.4355773
-0.65095645 -0.45186526 1.4601009
-0.55634916 -0.46517622 1.4771042
-0.46356639 -0.48701856 1.4904243
-0.39666963 -0.4980036 1.4959999
0.39260575 -0.48150107 1.490624
0.44457084 -0.4475641 1.4442453
-0.81479013 -0.34860024 1.477972
-0.75767076 -0.37072092 1.481424
-0.67537397 -0.39018857 1.4922206
0.46906084 -0.35584345 1.4604335
0.5145303 -0.33229783 1.4182284
0.48698708 -0.26897743 1.4829404
0.5338133 -0.24559073 1.4389038
-0.038957499 -0.13258164 1.4602348
0.049918585 -0.14054783 1.4488633
0.15075004 -0.13949232 1.4486639
0.25010806 -0.13577555 1.4501426
0.31772721 -0.12206054 1.4377358
0.49897847 -0.19787537 1.4960001
0.56107038 -0.1539195 1.4537152
0.61017925 -0.11972437 1.4121591
-0.046438396 -0.051817562 1.44886
0.34418309 -0.096755415 1.4039998
0.58180577 -0.060208239 1.4764992
0.6276468 -0.042389575 1.4320796
-0.027481897 0.049338382 1.4498008
0.00092925841 0.094530337 1.4066252
0.29218999 0.09594252 1.406
0.36209187 0.067036614 1.4208928
0.40504107 0.052816786 1.4219987
0.59557468 0.010445883 1.49194
0.6517573 0.050367747 1.449284
0.70543152 0.084725313 1.4072993
-0.014404415 0.14422841 1.4672177
0.0078768311 0.16250598 1.4242656
0.18154064 0.18598774 1.4106451
0.25680497 0.15787289 1.4295157
0.34566757 0.14384951 1.4657134
0.40172997 0.14096907 1.4899168
0.67406267 0.12338046 1.4618253
0.72030771 0.14685334 1.419809
-0.0066769822 0.22203961 1.4883895
0.039540976 0.26246685 1.4332689
0.15233925 0.25317571 1.4353004
0.24119094 0.24017422 1.4722586
0.31311387 0.21175396 1.4936501
0.76554137 0.2587446 1.4507357
0.057780989 0.34612685 1.4581417
0.13779756 0.33379385 1.4771869
0.20738113 0.30645248 1.4944998
0.77877182 0.34234989 1.4794772
0.80258608 0.39459991 1.4884002
0.060123701 0.41526693 1.4905013
0.79625612 0.40885305 1.4951922
0.80602568 0.43272039 1.495207
-0.81605428 0.58846259 1.4826657
-0.75246084 0.59013683 1.4817505
-0.65044653 0.59171873 1.4842559
-0.54878634 0.59259188 1.4864212
-0.45050323 0.59236211 1.4894903
-0.35179439 0.59403443 1.4878247
-0.24920705 0.59490943 1.4898864
-0.15328012 0.59489107 1.4924673
-0.050411291 0.59625733 1.4935386
0.043817267 0.59685904 1.4931624
0.13578033 0.59653085 1.4933089
0.24800453 0.59813398 1.4946634
0.34828603 0.59837431 1.4959997
0.45434263 0.59845054 1.4959996
0.53127348 0.59916532 1.4960002
0.66937941 0.59912664 1.4948335
0.76942933 0.59569907 1.4932549
0.8053869 0.59288973 1.4922307
-0.80759829 0.6031965 1.4533503
-0.75061154 0.60552531 1.4581959
-0.64955711 0.60632753 1.4606558
-0.55004698 0.60664785 1.4630649
-0.45154986 0.6067512 1.4660258
-0.34890717 0.60735029 1.4664673
-0.25041097 0.60816973 1.4707129
-0.14974077 0.6083535 1.473737
-0.051007733 0.608805 1.4756449
0.050495338 0.60929441 1.4772416
0.15134773 0.60910672 1.4779299
0.25003308 0.60986573 1.4799337
0.3501969 0.60976624 1.4813075
0.44914848 0.60974789 1.4829054
0.549016 0.60990167 1.4854159
0.65035844 0.60947692 1.4877483
0.7470153 0.60681087 1.482579
0.80303317 0.60255873 1.4878
-0.11763933 -0.60460985 1.5039996
-0.045280244 -0.60784036 1.519084
0.051657945 -0.61130565 1.5393707
0.15222912 -0.61558545 1.5582087
0.24997677 -0.61670738 1.5690479
0.31329948 -0.60914582 1.5230669
-0.33515978 -0.51461244 1.5071682
-0.2440006 -0.53239346 1.5179138
-0.14865413 -0.54865289 1.5298027
-0.050646644 -0.55153584 1.5519129
0.045974895 -0.55838007 1.5696515
0.1434149 -0.57350594 1.57937
0.2657201 -0.57073826 1.5804769
0.32956648 -0.54500085 1.5341239
-0.612845 -0.40387401 1.5020002
-0.53711557 -0.42027557 1.508822
-0.44626072 -0.44000712 1.5218197
-0.35011026 -0.45128962 1.539299
-0.25286222 -0.45352998 1.5634735
-0.15489487 -0.47136176 1.5762095
-0.06788604 -0.48473236 1.587394
0.0048364564 -0.49716586 1.5930002
0.29680839 -0.4964551 1.5918335
0.35563505 -0.45184129 1.547809
0.40537575 -0.41660139 1.5060964
-0.81634414 -0.30661291 1.505407
-0.74208015 -0.3247948 1.5144602
-0.64763027 -0.34549695 1.5263057
-0.55038631 -0.35089377 1.5463945
-0.4542928 -0.35761893 1.5686718
-0.35828179 -0.37778878 1.581284
-0.28219959 -0.39373237 1.5921767
0.37776348 -0.35864261 1.5667045
0.42166147 -0.34184438 1.5250092
-0.82955629 -0.24656782 1.5392851
-0.75094771 -0.25153458 1.5567108
-0.65515798 -0.26086375 1.5733037
-0.56236684 -0.28141636 1.5853828
-0.49758676 -0.29736578 1.5930001
-0.11308432 -0.20011711 1.5640001
-0.038150225 -0.20536201 1.5498861
0.054655712 -0.21400997 1.5655903
0.14403884 -0.21647686 1.5741581
0.22799519 -0.21220413 1.5758672
0.39363924 -0.28360087 1.5866581
0.44596842 -0.24805379 1.5438354
-0.84801143 -0.17264289 1.580548
-0.77589327 -0.18892281 1.5874256
-0.11630921 -0.15116772 1.5662196
-0.065534823 -0.16749181 1.5237452
0.048588213 -0.18526323 1.5195823
0.14900929 -0.18517937 1.5230087
0.24645126 -0.18166928 1.5271816
0.4718805 -0.15641123 1.5602064
0.51612425 -0.13417074 1.5194954
-0.10608028 -0.070236191 1.5793982
-0.083678909 -0.044946976 1.5378332
0.48589826 -0.070891477 1.5841452
0.53600091 -0.045394458 1.5401402
-0.067531981 0.051640067 1.5489576
0.56567061 0.042615574 1.5490702
0.61023873 0.077603333 1.5112151
-0.046363406 0.14914012 1.5453045
0.3793754 0.18668184 1.5088029
0.40338945 0.1672034 1.5077858
0.59611893 0.10153154 1.5346001
0.62656093 0.11355367 1.5146312
-0.025077561 0.25008422 1.54656
0.0014833742 0.28843883 1.5075002
0.27474153 0.27848193 1.5136001
0.35186094 0.25180221 1.5344672
0.40172109 0.21101229 1.5289999
-0.012899186 0.34365237 1.5660259
0.009798212 0.36023521 1.5227232
0.16580282 0.37227359 1.5154901
0.24941427 0.34975868 1.5449799
0.33803198 0.33004501 1.5754278
0.76391494 0.36811951 1.5134102
-0.004498275 0.42351493 1.5846995
0.047379259 0.45358935 1.5330055
0.14668871 0.44217503 1.5487585
0.22877596 0.4252052 1.58021
0.77548563 0.44870806 1.5407809
0.80594373 0.47305155 1.5115012
-0.83739084 0.54684532 1.5531583
-0.74857062 0.55276811 1.5457103
-0.64987272 0.55421323 1.5459205
-0.55088848 0.55529249 1.5462905
-0.45044267 0.55676764 1.5469296
-0.34988356 0.55932415 1.5464981
-0.24988437 0.56110483 1.5474151
-0.14957023 0.56328303 1.5471574
-0.050671514 0.56437272 1.5471239
0.050428547 0.56080943 1.5495932
0.15037304 0.56748641 1.5473831
0.24982375 0.56868792 1.5463583
0.34973058 0.56935626 1.5452363
0.44946316 0.57035208 1.5480051
0.54962355 0.57250297 1.5470767
0.64978427 0.57410914 1.546904
0.75138122 0.56927925 1.5468018
0.8164053 0.55078959 1.5501406
0.33392853 0.60156834 1.5020001
0.44287497 0.60156834 1.5020001
0.56147081 0.60234809 1.5024769
0.64754349 0.60224557 1.502488
0.74870306 0.60221678 1.502
0.065835617 -0.51156902 1.6039138
0.15666565 -0.52555263 1.6129446
0.24264975 -0.53715885 1.6176472
-0.21574938 -0.40845731 1.6018566
-0.14267921 -0.42332074 1.6098685
-0.045680378 -0.44138664 1.6210186
0.049577691 -0.45081937 1.6363175
0.14952797 -0.45105064 1.6568801
0.25257957 -0.45150864 1.6560757
0.31203362 -0.43182212 1.610419
-0.42870224 -0.31324393 1.6053723
-0.34499735 -0.33040851 1.6155435
-0.24921213 -0.34832722 1.6294872
-0.15065055 -0.35028362 1.6524365
-0.054575615 -0.35737351 1.671077
0.044833772 -0.37076002 1.6831837
0.14035739 -0.39047629 1.6905932
0.28415871 -0.36446217 1.6787435
0.33185753 -0.34383687 1.6342244
-0.70684135 -0.20331529 1.601
-0.63536996 -0.21548238 1.6068006
-0.54574037 -0.23610437 1.6199608
-0.4502348 -0.25083229 1.636806
-0.35093737 -0.25100955 1.6627625
-0.25615251 -0.26455152 1.6781036
-0.16420133 -0.28500485 1.6917734
-0.0930456 -0.29784724 1.6960001
0.16887665 -0.23606388 1.6068721
0.21802016 -0.23436368 1.6130846
0.35781571 -0.25251678 1.6511269
0.40860716 -0.21943103 1.6056454
-0.90311319 -0.10202868 1.6146666
-0.84295017 -0.12601715 1.6129632
-0.74606752 -0.14540204 1.6227585
-0.65069067 -0.15106139 1.6423569
-0.55301094 -0.15332936 1.6678983
-0.45777452 -0.17103149 1.6817914
-0.37430146 -0.18813473 1.6922661
-0.1306908 -0.11126399 1.6082959
0.37860912 -0.17866226 1.6641248
0.42561805 -0.14832976 1.6185465
-0.9106856 -0.044321716 1.6467036
-0.85100383 -0.059110109 1.6521684
-0.75205404 -0.062698014 1.672075
-0.65520442 -0.078407571 1.6856307
-0.58353347 -0.095277242 1.6948327
-0.12789363 -0.042677682 1.6401094
-0.099169962 -0.00024609177 1.6010001
0.47713292 -0.044835813 1.6068469
0.50271279 -0.0085552568 1.6041116
-0.1182483 0.042244829 1.6646154
-0.092290014 0.061998807 1.6127515
0.49234641 0.019756231 1.6274147
0.51410908 0.03204624 1.6111152
-0.1067685 0.12916476 1.6842417
-0.081983261 0.15594858 1.6359514
-0.065504715 0.25125673 1.6443651
-0.044217933 0.35098171 1.6467893
0.29596445 0.39463702 1.601
0.35770446 0.37253523 1.611762
-0.91878551 0.47828409 1.6690717
-0.84858447 0.47868276 1.6647458
-0.75116587 0.47829443 1.6654269
-0.6518774 0.47841096 1.6657572
-0.55061847 0.48021808 1.6664517
-0.44970822 0.48142442 1.6673379
-0.35034069 0.48167694 1.672066
-0.25048125 0.48473206 1.6740122
-0.15009999 0.48564726 1.6755629
-0.043406114 0.46804851 1.6639457
0.0027295309 0.48636889 1.6109499
0.17620178 0.49177161 1.6162686
0.26450685 0.46326923 1.6351241
0.34554669 0.4595657 1.6623877
0.44936454 0.48929051 1.6784767
0.5485884 0.48926625 1.6813414
0.64873821 0.48938206 1.6822411
0.74869806 0.49123976 1.6853679
0.80220366 0.4852213 1.6960001
-0.90424311 0.50390267 1.6163076
-0.84828538 0.51104254 1.6153601
-0.74880725 0.51064187 1.6144929
-0.6508708 0.51181877 1.6149698
-0.5498687 0.51193434 1.6157231
-0.44885272 0.51406133 1.6187576
-0.34973684 0.51427531 1.6211319
-0.24962866 0.5151999 1.6235979
-0.14986281 0.51740074 1.6233279
-0.05004127 0.51750588 1.6247095
0.029598702 0.5223555 1.6088382
0.15484722 0.52230883 1.6147012
0.24969412 0.52027595 1.6260726
0.35013849 0.52053899 1.626075
0.45108795 0.52083689 1.627959
0.54966867 0.5220629 1.6275058
0.65046424 0.52439857 1.6304511
0.74646586 0.52365744 1.6281018
0.80548352 0.533916 1.6032863
0.23347984 -0.4022162 1.7039995
-0.028264094 -0.31177312 1.7039998
0.055402584 -0.32239729 1.7149135
0.15162557 -0.34229338 1.7216722
0.24035208 -0.34489301 1.7277973
0.30055875 -0.30190068 1.7040001
-0.31175748 -0.20163468 1.7040004
-0.23869938 -0.21910115 1.7120643
-0.14962667 -0.24338977 1.7196175
-0.051960252 -0.2682519 1.7262789
0.044105582 -0.27770129 1.7428775
0.14393367 -0.28570449 1.7559654
0.26581228 -0.27734059 1.7425183
0.31487072 -0.23618723 1.7102194
-0.52254701 -0.10593256 1.7043338
-0.44314587 -0.12475746 1.7142295
-0.34698516 -0.1445037 1.7275879
-0.25063908 -0.15101106 1.7479365
-0.17648166 -0.15299366 1.7659742
0.33822578 -0.19631843 1.7052859
-0.70284045 -0.037340093 1.7078574
-0.6410529 -0.048151109 1.7072133
-0.54995501 -0.07047762 1.7188298
-0.45223761 -0.074763618 1.7419156
-0.3507387 -0.080996267 1.7665057
-0.26074317 -0.085507117 1.7854534
-0.19030233 -0.098731197 1.794
-0.14025266 0.069159865 1.7262193
-0.12995668 0.15166092 1.7458128
-0.11463495 0.24260147 1.7608241
-0.092580751 0.2637316 1.7167203
-1.000322 0.39939821 1.794
-0.94326437 0.39712393 1.7925065
-0.85058224 0.39664504 1.7932303
-0.75541365 0.39695689 1.7931883
-0.65953404 0.39826041 1.7933174
-0.56398541 0.39939824 1.7940001
-0.42249879 0.39939821 1.794
-0.10552176 0.32422268 1.7813134
-0.080923691 0.35145864 1.7367094
-1.0021808 0.40497503 1.794
-0.93798447 0.42782721 1.7444164
-0.85169774 0.42960605 1.7454991
-0.74989563 0.42884111 1.7442927
-0.64846236 0.42934769 1.7448325
-0.54967225 0.43137544 1.746967
-0.4497962 0.4340812 1.7466396
-0.35022458 0.43622917 1.7481163
-0.25034079 0.44093803 1.7466376
-0.14961362 0.44218987 1.7470031
-0.072265491 0.4448179 1.7372705
0.38126805 0.4644123 1.7067716
0.45632565 0.45089984 1.7433228
0.54971898 0.44667721 1.7480412
0.64984953 0.44826061 1.7473781
0.74999928 0.45156255 1.7468997
0.83039594 0.44480392 1.7621902
0.111964 -0.26861635 1.8067501
-0.16928749 -0.10303225 1.8030001
-1.0082518 -0.00028774753 1.8720001
-0.97273481 -0.0059946408 1.8562181
-0.22894275 -0.078830369 1.8038269
-0.1832701 -0.087745488 1.8075672
-1.0057104 0.027888913 1.8735387
-0.97422749 0.050230917 1.8726181
-0.96544641 0.14367889 1.8897576
-0.15251683 0.18452196 1.8071169
-0.13909502 0.25909528 1.8221896
-1.0208448 0.35800359 1.8593158
-0.95117354 0.36414319 1.8483999
-0.85077178 0.36192897 1.8471167
-0.75039828 0.36417523 1.8480532
-0.65092248 0.36573267 1.8479978
-0.54979134 0.36933729 1.8486674
-0.44914898 0.3714841 1.8508289
-0.34944946 0.37304616 1.8524231
-0.25026554 0.37459296 1.8570781
-0.14965704 0.36692825 1.8490896
-0.096988812 0.38914394 1.8063331
0.48198456 0.38158789 1.8570846
0.54886299 0.37800622 1.8595558
0.65145695 0.37926373 1.8596951
0.74713087 0.37801412 1.8620082
0.84754497 0.37943369 1.8649608
0.92345244 0.37871835 1.8734815
-1.0084541 0.40140191 1.8030001
-0.61611652 0.40140191 1.8030001
-0.53584981 0.40140197 1.803
-0.45741707 0.40212378 1.8052233
-0.34376159 0.4039579 1.8074993
-0.2475847 0.40614921 1.8087008
-0.15183899 0.40672696 1.8087398
-0.09710256 0.40442523 1.8040001
0.47025234 0.40915251 1.8115852
0.54972273 0.40709245 1.8097051
0.64915168 0.40874949 1.8108727
0.75447774 0.41001946 1.8136352
0.84676462 0.41156429 1.8161772
0.9071027 0.40456823 1.8362859
-0.98101306 0.19118886 1.9030001
-1.1085372 0.28131387 1.9876337
-1.0501975 0.28215739 1.9733225
-0.95512921 0.26245323 1.9477094
-0.84993351 0.28274262 1.9715542
-0.75174147 0.28465566 1.9717375
-0.65034103 0.28638625 1.9756727
-0.55079514 0.28926677 1.9809053
-0.45745742 0.29052973 1.9801718
-0.34633499 0.28933877 1.9833539
-0.25181764 0.29008228 1.9821022
-0.1811751 0.28890437 1.9671202
0.5613479 0.29525569 1.9893332
0.65242648 0.2958318 1.9890963
0.75593519 0.29606506 1.9901372
0.83662152 0.29800791 1.9920002
0.93619061 0.29899076 1.9920005
-1.0417987 0.31684607 1.9291024
-0.94985247 0.31550434 1.920123
-0.84884423 0.31436941 1.923291
-0.75070918 0.31648391 1.9218742
-0.64762425 0.31686237 1.9260676
-0.54785824 0.31914589 1.9296985
-0.44863608 0.32153443 1.9308213
-0.34914747 0.32387152 1.9386169
-0.24785455 0.32469809 1.9380299
-0.17667234 0.32782751 1.9312528
0.49541178 0.34893852 1.904375
0.55380672 0.32895556 1.9400569
0.64967406 0.32863978 1.9402897
0.75154895 0.32875749 1.9414704
0.85081547 0.33077803 1.9454237
0.94589114 0.33260077 1.9469017
1.0175698 0.31496847 1.9777981
-1.1269627 0.23477763 2.0545299
-1.0687352 0.24225281 2.038976
-0.94654197 0.23381814 2.0487568
-0.84898871 0.23590943 2.0485008
-0.74981117 0.23953357 2.0490966
-0.65017229 0.24336587 2.0471694
-0.55163366 0.24847783 2.0406377
-0.44797072 0.25331053 2.0410128
-0.34973881 0.25300771 2.0464461
-0.25053519 0.25650117 2.047359
-0.18613248 0.25854346 2.0547769
0.57417232 0.26764914 2.037291
0.65069121 0.26552811 2.0444355
0.74786609 0.26511112 2.0441101
0.85079616 0.26728633 2.0458219
0.94916058 0.26997605 2.0472987
1.0296943 0.27258331 2.0455351
0.89510787 0.30079192 2.0040002
0.9594233 0.30194548 2.0040004
1.0246371 0.30462217 2.0055001
-1.2120272 0.16314016 2.1781104
-1.1615227 0.1741121 2.1532168
-1.0326363 0.1674944 2.162184
-0.94844967 0.16949111 2.1548605
-0.84931052 0.17012532 2.1530447
-0.75151271 0.17138147 2.1574981
-0.651631 0.17436738 2.1580906
-0.55257267 0.17465557 2.1594527
-0.45249492 0.17466551 2.162895
-0.34989852 0.17846651 2.1584282
-0.25431836 0.178341 2.1704257
-0.19463767 0.18869986 2.1618669
0.65077984 0.18358459 2.1724019
0.74808753 0.18283623 2.1775465
0.84968394 0.18100278 2.1761987
0.91699058 0.19320939 2.1426036
-1.153657 0.20533341 2.10865
-1.0210172 0.20388037 2.1052504
-0.95165145 0.20375317 2.1042933
-0.87886536 0.20396422 2.104322
-0.74213552 0.20482631 2.1090569
-0.64474803 0.20609429 2.1073151
-0.54540884 0.21030326 2.1128025
-0.44703287 0.21166825 2.1122615
-0.3532612 0.21293557 2.1170216
-0.24814422 0.21625088 2.1214223
-0.19284967 0.21657103 2.1180003
0.59217238 0.22639056 2.1141841
0.65040594 0.21940356 2.1215322
0.75202036 0.21676721 2.1243176
0.84820902 0.21820742 2.1235821
0.94122112 0.22265875 2.1169808
-0.62962615 -0.015989907 2.2850018
-1.249355 0.090898134 2.2830279
-1.1201785 0.087630831 2.2738643
-1.0486062 0.089866407 2.2741034
-0.94829476 0.089744866 2.2784326
-0.85615265 0.093972437 2.2816684
-0.74732959 0.096667722 2.285001
-0.66132063 0.059049565 2.2838123
-0.54835677 0.098303966 2.2850001
-0.49669731 0.098303959 2.2850001
-0.20073175 0.098303959 2.2850001
0.75470001 0.096996903 2.2775004
-1.2320313 0.12206571 2.2398307
-1.1439134 0.11893538 2.2326586
-1.0486275 0.12124383 2.2314076
-0.94993556 0.11846834 2.2309525
-0.84983593 0.11890721 2.2382624
-0.74993736 0.12133595 2.2402689
-0.65132153 0.12500262 2.2440414
-0.55009437 0.12559864 2.2422693
-0.44999251 0.12748453 2.2481196
-0.35173362 0.13181508 2.2492876
-0.24424461 0.13446698 2.2496507
-0.19638386 0.14075483 2.2304115
0.67106408 0.14461432 2.23809
0.75149065 0.13616775 2.2478898
0.82063258 0.14558831 2.2271044
-1.2951543 -0.00036844597 2.3970001
-1.1149429 -0.011263781 2.3646781
-1.0767038 -0.014441476 2.3461437
-0.62383807 -0.025474356 2.3203404
-0.320932 -0.049948622 2.3725495
-0.2827996 -0.012172114 2.3626363
-1.3166687 0.041453138 2.3771641
-1.2701489 0.058155265 2.3287845
-1.141284 0.040815145 2.3517404
-1.0504122 0.042996623 2.3429072
-0.95137578 0.049018752 2.3469059
-0.84978694 0.054682605 2.3406525
-0.75168616 0.058712397 2.3411407
-0.64367396 0.053267539 2.3384023
-0.55217117 0.06451764 2.3473153
-0.45211706 0.068940878 2.3453104
-0.35009575 0.072070405 2.3488543
-0.25806862 0.061124362 2.3359609
0.6936729 0.094135009 2.3099999
0.72821891 0.087595649 2.3158247
-0.42945299 0.10391443 2.2999995
-0.32970494 0.10538687 2.2999997
-0.26117533 0.10695861 2.3000014
0.68669593 0.11051615 2.3010664
0.71758085 0.10620271 2.2999995
-1.3410923 -0.0060003828 2.424094
-1.2123791 -0.0089612966 2.4363463
-1.1743828 -0.0094036935 2.4280436
-1.0395533 -0.017032303 2.434859
-0.95197147 -0.023413494 2.4525383
-0.85162622 -0.023440994 2.4667144
-0.75243235 -0.015138382 2.4559774
-0.62441337 -0.013509984 2.4581738
-0.54772997 -0.012358331 2.4674456
-0.45625222 -0.0073605953 2.4763913
-0.35277343 -0.013287006 2.4682024
-0.25942466 -0.0042062136 2.467572
-1.3344268 0.012231883 2.4147737
-1.2048796 0.0067757838 2.4139998
-1.1733289 0.0085993959 2.414516
-1.0343977 0.0054357499 2.4140007
-0.95274663 0.0090781841 2.4159377
-0.84666049 0.010811683 2.4196138
-0.76534784 0.012816239 2.4196072
-0.62325013 0.015284793 2.4247975
-0.54651827 0.016045412 2.4238718
-0.44810566 0.01948254 2.4317477
-0.35153896 0.022037001 2.4299617
-0.26181942 0.013433211 2.4318864
-0.91162968 -0.046955012 2.5020001
-0.84211433 -0.048340905 2.5051141
-0.74712497 -0.050114591 2.5116525
-0.63166767 -0.046608612 2.5150414
-0.55052269 -0.056023516 2.5296721
-0.45091638 -0.050274469 2.5289631
-0.3570008 -0.050995059 2.5458777
-0.26251847 -0.051804159 2.5564497
-0.3113364 -0.10639448 2.6303334
-0.28308907 -0.1057431 2.6170003
-0.32264838 -0.089652136 2.619
-0.27760378 -0.095982872 2.6170001
