# .PCD v0.7 - Point Cloud Data file format
VERSION 0.7
FIELDS x y z normal_x normal_y normal_z curvature
SIZE 4 4 4 4 4 4 4
TYPE F F F F F F F
COUNT 1 1 1 1 1 1 1
WIDTH 629
HEIGHT 1
VIEWPOINT 0 0 0 1 0 0 0
POINTS 629
DATA ascii
0.22399396 0.5831669 1.5284824 -0.090471365 -0.85120207 -0.51698166 0.00011123087
0.32330391 0.57384908 1.5256979 -0.081909865 -0.84471858 -0.52890563 0.00096730154
0.422979 0.56324375 1.5220203 -0.12031266 -0.87013298 -0.47790518 0.0010674471
0.5226239 0.55643266 1.5173713 -0.095978759 -0.86094046 -0.49956939 0.00066241127
0.62177563 0.55168486 1.5071083 -0.035616796 -0.83660412 -0.54664886 0.0019658161
0.72245151 0.54641551 1.5001117 -0.066861778 -0.84454304 -0.53129715 0
0.81990874 0.53991818 1.4889162 -0.13291718 -0.87869775 -0.45850104 0.001160898
0.88128787 0.53406674 1.4779881 -0.063603796 -0.87536508 -0.47926039 0
-0.76483184 0.65826845 1.573576 -0.11283564 -0.99264681 -0.043823093 0.0032325366
-0.67582458 0.65543139 1.5677602 -0.098299108 -0.82518715 -0.55624056 0.0022564472
-0.57642126 0.65125638 1.5552552 0.045322377 -0.92522156 -0.37671053 0.0029301175
-0.47712454 0.64895171 1.5420712 -0.052288257 -0.84901816 -0.52577001 0.00039409479
-0.37653947 0.64626181 1.5274071 -0.024418963 -0.85843283 -0.51234448 0.0016299953
-0.27723697 0.64391071 1.5152721 -0.074680403 -0.84482932 -0.52979839 0.00085484318
-0.18003002 0.63907802 1.5066398 -0.15358812 -0.79091692 -0.5923354 0.0043156445
-0.082618006 0.63463736 1.4974748 -0.078471027 -0.87425297 -0.47908667 0.0017868759
0.0093077868 0.63080484 1.489948 -0.10992238 -0.86998057 -0.48067755 0.0012560273
0.10550014 0.62776053 1.4846077 -0.13206889 -0.85667264 -0.49866796 0.0043759886
0.047526032 -0.59426463 1.6304855 0.30648491 0.87078142 -0.3844564 0.13956997
0.12267975 -0.59560764 1.6294482 -0.16097941 0.5213235 -0.83803791 0.01766629
0.22253475 -0.59473854 1.6206717 0.040830527 0.44847223 -0.89286369 0.01341663
0.32347569 -0.59385204 1.6155571 -0.050319813 0.52810282 -0.8476882 0.0023670038
0.42024034 -0.58950758 1.6123532 -0.073979057 0.51218057 -0.85568583 0.0091694603
0.52101135 -0.58644956 1.6073281 -0.095022537 0.44768506 -0.88912809 0.0059672715
0.62294865 -0.58538449 1.6042092 -0.12622811 0.53530884 -0.83517122 0.0039321929
0.71660906 -0.58242738 1.6006124 -0.091369845 0.45972529 -0.88334829 0.007123102
0.80044049 -0.57798505 1.5953959 -0.12770835 0.63363427 -0.76301914 0.011980591
0.036368106 -0.51706237 1.6567701 0.72821426 0.48929194 -0.47989309 0.03639967
0.12533957 -0.51921427 1.6707985 -0.31319001 0.70816088 -0.63278759 0.0021919359
0.22559273 -0.52003938 1.6614549 -0.028581193 0.36871037 -0.92910486 0.014786222
0.32533708 -0.52197659 1.6551616 -0.20638488 0.50273734 -0.83944058 0.0045195282
0.42477232 -0.52121252 1.6483535 0.014736826 0.63181227 -0.77498138 0.01203126
0.5247457 -0.52185327 1.6418796 -0.040590294 0.48456398 -0.87381357 0.004478639
0.6247797 -0.52126187 1.6361234 -0.065673694 0.48871613 -0.86996746 0.00062279112
0.72404408 -0.52213508 1.6298964 -0.09776365 0.55507845 -0.82603282 0.00064827688
0.81970507 -0.518399 1.6252817 nan nan nan nan
0.90658098 -0.48980621 1.6285682 nan nan nan nan
-0.031583607 -0.38731667 1.6198566 0.94270015 -0.087267868 -0.32202598 0.02226603
0.0057200715 -0.42281348 1.6602373 0.25234377 0.96451735 0.077645712 0.065234073
0.14295259 -0.46096927 1.7032031 -0.040823326 0.55066401 -0.83372808 0.012773169
0.22648939 -0.45854789 1.6990989 -0.01633944 0.42840245 -0.90344036 0.0078542447
0.32776177 -0.45474446 1.6891388 0.020554757 0.46601263 -0.88453925 0.0033976401
0.42894998 -0.45133001 1.6858258 -0.072060123 0.41514191 -0.90689832 0
0.52700645 -0.44727173 1.6808218 -0.13925043 0.45861951 -0.87765455 0.013313439
0.62823725 -0.44409159 1.6780261 -0.057370733 0.44322085 -0.89457464 0.007647858
0.72515792 -0.44119054 1.6733915 -0.087347813 0.49833283 -0.86257446 0.0051248008
0.8266961 -0.44075403 1.6694661 -0.011447029 0.35851797 -0.93345261 0.00023197407
0.91953057 -0.43533805 1.6632946 nan nan nan nan
-0.043371238 -0.31206506 1.6344144 0.86725169 0.19915126 -0.45630407 0.048850711
-0.0081279352 -0.3291505 1.6820664 -0.97206944 0.062607579 -0.22618866 0.12915477
-0.060838148 -0.21859699 1.6512758 0.6523791 -0.0066868877 -0.75786322 0.036457494
0.01886123 -0.23890901 1.6600543 nan nan nan nan
0.1249234 -0.23632723 1.6324359 -0.11223322 -0.86288345 -0.49278384 0.0043402719
0.21895155 -0.23866174 1.61307 -0.029433772 -0.9578315 -0.28581887 0.017949352
0.30022368 -0.23701072 1.5995443 -0.18364553 -0.78183794 -0.59582192 0.02816999
-0.12767914 -0.077706896 1.6066839 0.79828471 0.60227966 0.0007913505 0.020208657
-0.086392455 -0.12159507 1.6501497 0.51863867 -0.29370135 -0.8029654 0.0018067689
-0.13701773 -0.0093432348 1.621374 0.89148253 0.15180203 -0.42686638 0.033285722
-0.10297152 -0.025436645 1.6670994 0.50321239 -0.27625462 -0.81881666 0
-0.1505869 0.054825634 1.6241859 0.89145333 0.11706828 -0.43772817 0.040126104
-0.11808654 0.038160749 1.6644758 0.8124522 0.2293078 -0.53604043 0.00049579225
-0.031797081 0.19044393 1.6098512 -0.36265472 0.53964543 -0.75977916 0.00619729
0.0052344166 0.20845941 1.6060376 -0.3491894 0.53621942 -0.76846313 0.0013149157
-0.028356176 0.27105904 1.6600356 -0.56856233 0.37218866 -0.7336297 0.034494821
0.026249185 0.27913192 1.6387697 -0.31553805 0.52612656 -0.78970033 0.001766425
0.11614274 0.29680151 1.6094525 -0.34656996 0.5183053 -0.78182405 0.0020189092
0.18761095 0.31814378 1.5916314 -0.35377574 0.50647998 -0.78633374 0.0034994136
0.04564701 0.35262358 1.6757165 -0.32100111 0.52253765 -0.78988135 0.0075013214
0.12999851 0.37573454 1.6516384 -0.35970289 0.58129132 -0.72987288 0.0047233477
0.22205603 0.38357389 1.6161009 -0.29492068 0.52542788 -0.7980898 0.006106453
0.31283167 0.4089005 1.5921597 -0.39777535 0.82449859 -0.40246338 0.0021664363
0.38398898 0.42196137 1.5811665 -0.23221421 0.096228585 -0.96789289 0.069851756
0.84926718 0.4275856 1.6637154 -0.085329153 -0.78977823 -0.60742837 0.018746244
0.93933487 0.42329299 1.6550778 -0.18549363 -0.85519475 -0.48397738 0.0017379968
0.98206216 0.41220194 1.656456 nan nan nan nan
-0.16487753 0.5280658 1.6879525 0.087104388 -0.61488211 -0.78379381 0.002823252
-0.06439279 0.52538723 1.6802617 -0.12852639 -0.86468458 -0.48559394 0.0031839565
0.030337915 0.52003503 1.6684358 -0.12651886 -0.89092875 -0.43616381 0.0045051235
0.13184699 0.51011068 1.6595811 -0.20532759 -0.6608668 -0.72186953 0.0044966643
0.23317891 0.49084586 1.6511499 -0.13449599 -0.85132301 -0.50710934 0.042587075
0.32655635 0.4864924 1.6264173 -0.30519128 0.10742593 -0.94621235 0.046742473
0.42503908 0.49496335 1.6147339 -0.09351939 -0.42564288 -0.90004569 0.02168911
0.52687562 0.49220979 1.6216542 -0.10327916 -0.85951763 -0.50056255 8.8507019e-05
0.6258747 0.48183101 1.6205727 -0.11473265 -0.8563562 -0.50347835 0.0048652934
0.72636926 0.4740606 1.6163104 -0.080569074 -0.85775113 -0.50771224 0
0.82443619 0.4653582 1.6138872 -0.089243762 -0.82568759 -0.55702382 6.0266477e-05
0.91654301 0.45662057 1.6101781 -0.091606267 -0.88068128 -0.46476743 0.00021971599
-0.75083238 0.61009425 1.6532742 -0.13728429 -0.8663013 -0.48028642 0.0087793898
-0.67329884 0.6034255 1.6541599 -0.15715984 -0.88985872 -0.42831326 0.014516656
-0.57331276 0.59449393 1.6485692 -0.1109438 -0.84857821 -0.51730686 0.00046580756
-0.47428992 0.58464187 1.6457595 -0.14799282 -0.82744205 -0.54169905 0.0057307659
-0.37283972 0.5757063 1.6427464 -0.11928717 -0.83702511 -0.53400344 0.028883781
-0.27430516 0.56817055 1.6408017 -0.1351606 -0.90139681 -0.41135812 0.00091314409
-0.17469057 0.56217325 1.6365073 -0.16818884 -0.93025339 -0.32609981 0.0042020823
-0.075488277 0.55779666 1.6283236 -0.014688579 -0.78912169 -0.6140613 0.0057635051
0.024701312 0.5524115 1.6174426 -0.080114514 -0.88287234 -0.4627288 0.0059696371
0.12217112 0.5458346 1.6075023 -0.13460267 -0.83415568 -0.53485161 0
0.22202715 0.54108125 1.5985508 -0.10109361 -0.83913422 -0.53444731 0.0020747939
0.32058901 0.53607154 1.5879459 -0.084020719 -0.86730874 -0.49062833 0.00011134394
0.42047769 0.53145385 1.5787092 -0.06186033 -0.87874001 -0.47327507 0.0019071151
0.48376337 0.52870458 1.5759683 -0.11277381 -0.86420542 -0.49033761 0.0094244219
-0.77428365 0.63731104 1.6104947 0.15057851 -0.87083304 -0.46794847 0.0045673922
-0.6898855 0.63520122 1.6058421 -0.23922163 -0.88272238 -0.40444311 0.020374443
0.057408676 -0.47038835 1.7141831 -0.48479363 -0.29665807 -0.82278138 0.032780003
0.054492578 -0.41231388 1.7314954 0.39555845 0.47944236 -0.78337008 0.074411146
0.12489801 -0.41299599 1.7319516 -0.11293758 0.45896617 -0.88124633 0.0028348996
0.22774407 -0.40976882 1.7261419 -0.12413497 0.59304231 -0.79554468 0.0045660837
0.32594708 -0.40500027 1.7212871 -0.20456985 0.4912903 -0.84663159 0.009231844
0.42558333 -0.4013288 1.7137756 0.0060732421 0.49117634 -0.87103897 0.0035236995
0.52663028 -0.39562196 1.7108887 -0.050722241 0.32748628 -0.94349349 0.0098202629
0.62277114 -0.39392757 1.7036484 -0.0090431143 0.53485566 -0.84489506 0.0029780762
0.72766179 -0.39004031 1.7019312 0.036768164 0.41299132 -0.90999252 0.0045190272
0.82630849 -0.38942337 1.6973559 nan nan nan nan
0.92385632 -0.38723809 1.6937653 nan nan nan nan
0.97745997 -0.37668738 1.6874748 nan nan nan nan
0.037096784 -0.31826061 1.7559236 0.056815177 0.97900683 -0.19574891 0.1451651
0.12729783 -0.32792535 1.7784265 0.070811376 0.39689329 -0.91512918 0.021348061
0.22904962 -0.32927004 1.770872 -0.051713858 0.53452802 -0.84356707 0.0014885705
0.32916307 -0.3274096 1.7647145 -0.045115795 0.51457298 -0.85625887 0.00015172927
0.43015441 -0.32214639 1.7612982 -0.10562538 0.48083121 -0.87042785 0.0078689652
0.5280599 -0.31823036 1.7537445 -0.071018107 0.51703125 -0.8530153 0.008317939
0.62793964 -0.31958893 1.7458051 -0.03317954 0.48669609 -0.87294096 0
0.72752386 -0.31939918 1.739301 -0.11223176 0.47854456 -0.87086111 0.002643137
0.82751757 -0.31984183 1.7350305 -0.21420687 0.30724496 -0.92720872 0.0078533338
0.9283604 -0.32073891 1.7310126 nan nan nan nan
0.9904502 -0.30550843 1.7343878 nan nan nan nan
-0.028903723 -0.19293763 1.7143322 0.65371192 0.70807076 -0.26701421 0.018932495
0.0064690039 -0.22671378 1.7496802 0.70414007 0.61106503 -0.36164361 0.019123707
0.4081203 -0.2648533 1.790013 -0.25200787 0.3785865 -0.89059776 0.041388087
0.54035205 -0.26085246 1.7841005 -0.073538586 0.68880057 -0.72121131 0.0033189112
0.62929988 -0.2562122 1.7778708 -0.079790249 0.45924899 -0.88471681 0.0027320615
0.72819 -0.25255474 1.775472 0.013312062 0.46766061 -0.88380784 0.0038664655
0.82710981 -0.24975786 1.7710418 -0.29854482 0.59481412 -0.74636936 0.024152705
0.92817593 -0.25042206 1.7678204 -0.011809687 0.51794451 -0.85533273 0
1.0037601 -0.24611725 1.7644979 -0.26442987 0.30434126 -0.91512471 0
-0.034786656 -0.15038651 1.7159729 0.78796673 0.09849482 -0.60778868 0.014269189
-0.017454553 -0.16060778 1.7326903 0.52465492 -0.37020507 -0.76660645 0.0013143047
-0.080227681 0.003390152 1.7102762 nan nan nan nan
-0.018942084 0.33123356 1.6971127 -0.45874172 0.46457997 -0.75744402 0.031305872
-0.022140078 0.35669801 1.7055966 -0.34131977 0.28557956 -0.89551395 0.0012267737
0.021632425 0.39266229 1.7126137 -0.32773697 0.4610562 -0.82463056 0.015036948
0.094367087 0.41862956 1.6959695 -0.31448925 0.60835004 -0.72870207 0.0065736081
0.47770283 0.42216122 1.752279 -0.39505321 -0.85486156 -0.33636987 0.0052800346
0.53230828 0.41518512 1.7466215 -0.056376003 -0.848207 -0.52665609 0.00047211317
0.6305328 0.40953225 1.7360166 -0.073337354 -0.82177788 -0.56506878 6.8320776e-05
0.73175472 0.40483087 1.725535 0.013383498 -0.87552357 -0.48299 0.0075861714
0.83099598 0.4002237 1.7187365 -0.062049408 -0.78252786 -0.61951596 0.001856348
0.92992961 0.39368919 1.714882 -0.19714823 -0.9033367 -0.38093996 0.0005028313
0.99813551 0.37879196 1.7178802 -0.25892171 -0.90211749 -0.3451719 0.093425982
-0.64867538 0.52177727 1.7792271 0.040761154 -0.7277844 -0.68459362 0.078068376
-0.56794071 0.51761299 1.7764117 0.11276644 -0.84680074 -0.51981944 0.0078515466
-0.46662605 0.50976914 1.7619989 0.044020705 -0.68852079 -0.7238794 0.018143406
-0.36956602 0.50855726 1.754373 -0.0046335757 -0.83551162 -0.54945314 0.012759401
-0.27063453 0.50397062 1.746268 0.068158269 -0.9252333 -0.37322611 0.0020928653
-0.16967013 0.4977541 1.7397808 -0.0091872802 -0.85909712 -0.51173013 0.0046162424
-0.071899988 0.49127519 1.7381779 -0.0064633475 -0.84728742 -0.53109533 0.0082162786
0.027081229 0.47792843 1.7355691 0.17232689 -0.66402262 -0.72758323 0.02692836
0.12440821 0.47466817 1.7158934 -0.036814336 -0.42031822 -0.90662962 0.074289799
0.20876133 0.48042491 1.6954495 -0.055247292 -0.83626902 -0.54552901 0
0.46622354 0.45114851 1.7013977 0.11773487 -0.64661038 -0.75367993 0.029186329
0.5237928 0.44591069 1.6979126 -0.034656335 -0.95325702 -0.30016661 0.010738764
0.62353808 0.43844745 1.6880018 -0.13025899 -0.86169451 -0.49042347 0.0030581499
0.719796 0.43581438 1.6801581 -0.071819879 -0.8220188 -0.56491333 0.0024956733
0.83341551 0.43262509 1.6720222 -0.28633195 -0.75166589 -0.59414846 0.019383373
-0.72437316 0.56988591 1.713194 0.1411797 -0.94641185 -0.29047003 0.011876956
-0.66783249 0.55528414 1.7328651 -0.063613556 -0.8083331 -0.58527845 0.037380736
-0.57439274 0.54755068 1.7278646 -0.089999661 -0.80610293 -0.5848915 0.0034512903
-0.472451 0.5426988 1.7146978 0.044831172 -0.91635627 -0.39784595 0.0009981175
-0.37925237 0.53924769 1.7056725 -0.1698488 -0.7948972 -0.58248597 0
-0.27375129 0.53412557 1.6995574 -0.10985261 -0.86965036 -0.48129049 0.0061373073
-0.22168097 0.53166389 1.6977301 -0.022669898 -0.8790192 -0.47624713 0.0030767189
0.06493108 -0.28739735 1.8089296 -0.91171998 0.27735734 -0.30305049 0.039956659
0.12750289 -0.28818068 1.8070396 -0.11747671 0.93146229 -0.34435058 0.020710161
0.22969455 -0.28665763 1.8042855 -0.031792819 0.3889266 -0.92072004 0.052968156
0.34065479 -0.27860522 1.8015784 -0.16149762 0.38115418 -0.91029668 0.059695549
0.40893558 -0.27401295 1.8005408 -0.16330811 0.53088701 -0.83155847 0.046230078
0.049946807 -0.25232512 1.81214 nan nan nan nan
0.46230283 -0.2638661 1.7975541 -0.11416019 0.76721805 -0.631145 0.0070090457
0.55412102 -0.24223357 1.7976894 -0.099620558 0.60196203 -0.79228628 0.0041053854
0.63273627 -0.20700325 1.8101052 -0.021410337 0.48857048 -0.87226176 0.0023159944
0.73108232 -0.20249678 1.8041272 -0.31391665 0.26716572 -0.91108662 0.0086407978
0.82949281 -0.19935891 1.8009374 0.13910559 0.3744947 -0.91673511 0.0051884125
0.92957044 -0.20107426 1.798895 -0.84489441 0.50831735 0.16663399 0
1.0064932 -0.19611403 1.7967197 nan nan nan nan
0.63937294 -0.15163989 1.8377749 -0.077608146 0.55843902 -0.82590735 0.022467926
0.72167289 -0.15482685 1.8277501 0.0095526995 0.37490171 -0.9270153 0.008216274
0.84490907 -0.13906075 1.8487079 -0.046455223 0.75035083 -0.65940553 0.061536126
0.92970002 -0.13194592 1.8518722 nan nan nan nan
1.031286 -0.13159104 1.8521351 -0.34411222 0.51371211 -0.7859304 0.0014355121
0.5505501 0.32865879 1.8703586 -0.84014207 -0.54229867 0.008570862 0.072923854
0.63653594 0.3282612 1.8655496 -0.19218279 -0.82611793 -0.52971214 0.01368886
0.73682773 0.32263803 1.8572468 -0.10266961 -0.84225023 -0.52921963 0.0025168131
0.83326888 0.31762335 1.845551 -0.09395425 -0.90415168 -0.4167521 0.0092960317
0.9340362 0.31513584 1.8397248 0.18588495 -0.83733314 -0.51412064 0.0004896415
1.0291953 0.31092471 1.8327714 0.11422196 -0.92332405 -0.36664176 0.00055388903
1.0857276 0.28970084 1.8550843 0.049040787 -0.79261261 -0.60775024 0
-0.52290124 0.43529725 1.8971599 0.23680152 -0.95571834 -0.1747213 0.025276756
-0.46779236 0.43286765 1.895751 -0.34730679 -0.89946848 -0.26520649 0.00041757995
-0.36334851 0.42875147 1.8862162 -0.26018089 -0.78793073 -0.55809593 0.00013847846
-0.26859498 0.4208394 1.8759382 -0.0089679724 -0.73589605 -0.67703509 0
-0.16325533 0.42137238 1.8692638 -0.15413709 -0.9341619 -0.32184386 0.044194389
-0.070287429 0.41623563 1.8551903 -0.26788908 -0.85105586 -0.45159641 0.0031516207
-0.018702675 0.42572451 1.7939178 -0.29499733 -0.58390737 -0.75632578 0.084472552
0.54492581 0.37108356 1.8217286 -0.13856548 -0.94902223 -0.2831189 0.044015937
0.63095009 0.36207819 1.815428 -0.096076533 -0.86863285 -0.48605177 0.0038120165
0.72775304 0.3564581 1.8026367 -0.0049451469 -0.84149557 -0.54024136 0.0017723504
0.82823622 0.35110804 1.7968606 -0.11772189 -0.86477154 -0.48817173 0.0029103754
0.92898911 0.34854525 1.7896771 -0.086995617 -0.74694008 -0.65917546 0.056106899
1.0168537 0.3436237 1.7819357 0.29943228 -0.9343757 -0.19308628 0
-0.63491374 0.49535108 1.8212957 nan nan nan nan
-0.56669605 0.47394916 1.8484285 -0.16404618 -0.8771767 -0.4512758 0.0030161955
-0.46933803 0.46313566 1.848817 -0.145198 -0.90539128 -0.39897898 0.0087449197
-0.37041637 0.46020555 1.8331122 -0.042661533 -0.70784134 -0.70508206 0.009049844
-0.26784706 0.45670915 1.8279492 0.17795949 -0.78148276 -0.59800935 0.034233682
-0.17240348 0.45193911 1.8198493 -0.022732887 -0.90179086 -0.43157426 0.034564231
-0.070720874 0.44718257 1.8058866 -0.13565074 -0.85758597 -0.4961302 0.04856731
-0.017898917 0.44673514 1.7933959 -0.31482166 -0.25415698 -0.91448981 0.039092526
0.84512252 -0.09673728 1.9136857 nan nan nan nan
0.9322964 -0.081663281 1.8839115 0.064491309 0.64657885 -0.76011622 0.00062391418
1.027151 -0.083868548 1.8836937 nan nan nan nan
1.0864109 -0.072253853 1.876449 nan nan nan nan
0.85841715 -0.017814437 1.9322721 -0.30376467 0.80896693 -0.50328875 0.075390138
0.93349212 -0.014957217 1.9202889 -0.21600875 0.58396131 -0.78251481 0.039808318
1.0348035 -0.015608912 1.920621 nan nan nan nan
1.0978912 -0.0048585255 1.9220365 nan nan nan nan
0.86855322 0.05809024 1.962868 0.052858353 -0.1546744 -0.98655051 0.072560102
0.92843688 0.057866804 1.9603876 -0.020191237 0.53565258 -0.84419698 0.038942654
1.0353347 0.054122671 1.9577999 nan nan nan nan
1.1113973 0.060973108 1.9575442 -0.050611794 0.61555982 -0.78646332 0.0032613233
0.93653816 0.23465341 1.9621795 nan nan nan nan
1.0438442 0.23226307 1.9572116 -0.94959104 0.04394906 -0.31039539 0
1.112177 0.22935128 1.9532667 -0.0024543246 -0.86223656 -0.50649983 8.0824124e-05
-0.19269907 0.33751324 1.9897692 -0.57642502 -0.81633991 0.036377698 0.18514585
-0.073569112 0.33464661 1.9852918 -0.21078384 -0.89270425 -0.39830798 0.00064439524
0.56989068 0.30555099 1.9182516 -0.084783576 -0.80127829 -0.59225392 0.039303552
0.63345367 0.2937822 1.9233618 -0.10881582 -0.82133621 -0.55996966 0.0039035031
0.73448795 0.28487015 1.9217703 -0.12740746 -0.8214308 -0.55589461 0.0022276225
0.83452511 0.27374026 1.920053 -0.22766434 -0.67236644 -0.70433819 0.0014235595
0.93398821 0.26833129 1.9139961 -0.15574113 -0.8473953 -0.507608 0.033590276
1.0332643 0.26407865 1.907318 -0.078156836 -0.69611794 -0.71366054 0.03181481
1.1025931 0.2566556 1.9085087 0.028507188 -0.84997725 -0.52604741 0
-0.53884637 0.4168261 1.9329851 -0.13145924 -0.85708249 -0.49812439 0.035216279
-0.46588001 0.40059376 1.950577 -0.23687121 -0.55259842 -0.79907894 0.034728348
-0.36430642 0.39012903 1.9500715 0.11160566 -0.91419369 -0.38960752 0.0062687937
-0.26534921 0.38075894 1.9520262 0.077325508 -0.71377331 -0.69609517 0.0065135704
-0.16739348 0.37738568 1.9431691 nan nan nan nan
-0.075870357 0.37174836 1.9416866 nan nan nan nan
0.53081363 0.35454226 1.8943835 nan nan nan nan
-0.55843377 0.44059378 1.9079852 -0.065248966 -0.91839302 -0.3902522 0.00089785317
0.84517807 -0.10507983 2.0270705 -0.98087186 0.031989329 -0.19200803 0.062742561
0.84749955 -0.010956069 2.0225003 nan nan nan nan
-0.16982412 0.11202833 2.0506487 0.010318123 0.34501091 -0.93854201 0.12139023
0.85936785 0.092597879 2.0125403 nan nan nan nan
0.93886596 0.10697576 1.9907494 -0.083417475 0.65881455 -0.7476663 0.035226084
1.0328037 0.10314683 1.9904448 nan nan nan nan
1.1197506 0.11101739 1.9939479 nan nan nan nan
-0.1707494 0.16424164 2.0827022 0.023090869 -0.99319023 -0.1141931 0.043463018
0.64897358 0.22055224 2.0446439 -0.060759682 -0.87584281 -0.47875634 0.0015706052
0.73885572 0.21461257 2.0339472 0.034678087 -0.92112452 -0.3877202 0.0093329698
0.84230196 0.20040837 2.0264776 0.40108213 -0.20287637 -0.8932941 0.017166881
0.93528694 0.18971775 2.0219893 -0.62829047 -0.085646152 -0.77325016 0.0053668502
1.0361608 0.18808429 2.0199549 0.71412981 0.097075701 -0.69324958 0
1.1305805 0.18133193 2.0228813 nan nan nan nan
1.1940616 0.16507952 2.051223 nan nan nan nan
-0.43045974 0.32382855 2.0373034 0.58395499 -0.5876013 -0.56010836 0.038068257
-0.36391833 0.31950402 2.0705881 0.14653495 -0.75367707 -0.64070147 0.041167837
-0.26083121 0.31577465 2.0540016 -0.063832402 -0.80896312 -0.58438355 0.038322546
-0.16400364 0.3110255 2.0462704 0.15628384 0.87408394 -0.45994839 0.0077711195
-0.082435153 0.3107689 2.0413465 nan nan nan nan
0.58129776 0.26906887 1.989822 -0.021315286 -0.90539801 -0.42402843 0.026547587
0.63252997 0.25143233 1.9966763 -0.32393575 -0.82155639 -0.46915963 2.3279299e-05
0.72960347 0.24836123 1.9883066 -0.025285145 -0.85050792 -0.52535403 0.0018873858
0.82128227 0.24103412 1.979043 -0.15573096 -0.84902793 -0.50487566 4.5253341e-06
0.8904385 0.23725674 1.9753518 -0.013854133 -0.78941745 -0.61370033 0.017657984
-0.44466558 0.35660204 2.0192032 -0.28686258 -0.53903979 -0.79192549 0.10697521
-0.36944374 0.34854087 2.0233259 0.32635951 -0.84407306 -0.4254764 0.031028919
-0.26710513 0.34661877 2.0115764 -0.56043738 -0.5668456 -0.60381788 0.013580913
-0.14912185 0.34485859 2.0076792 -0.21244526 -0.96176136 -0.17286438 0.027999401
-0.10986445 0.34175348 1.9994721 -0.13353091 -0.92545468 -0.35454643 0.034157518
0.84492034 -0.16254465 2.1345592 -0.62137431 0.41924298 -0.66191334 0
0.84935647 -0.10796647 2.1279309 -0.72520089 -0.68663001 -0.051213339 0
0.85229808 -0.010820599 2.1253362 nan nan nan nan
0.68195575 0.1381989 2.1753809 -0.12353115 -0.81595641 -0.56476116 0.0073397686
0.7468465 0.13327484 2.1679647 nan nan nan nan
0.84735078 0.10590655 2.1374474 -0.86196041 -0.43218651 0.26502645 0.00029606503
-0.33127552 0.23819663 2.1924815 0.81631762 -0.33418339 -0.47111261 0.11107993
-0.26106715 0.23382005 2.1905787 -0.36400646 -0.46936896 -0.80448252 0.01073594
-0.15302339 0.21224938 2.1357069 nan nan nan nan
-0.092577793 0.20186816 2.1561503 nan nan nan nan
0.65709025 0.1773655 2.1182694 -0.17854264 -0.85420036 -0.48832801 0.0088980468
0.74080336 0.16688193 2.1169324 0.32608563 -0.75386721 -0.57039678 0.0018080724
0.82828277 0.15961459 2.1039493 -0.042758573 -0.92784494 -0.370507 0.044202898
-0.41293445 0.29989272 2.1065941 0.24081239 -0.9012692 -0.36017108 0.018741548
-0.3541609 0.27463517 2.1385503 -0.50142908 -0.86040747 -0.090927079 0.016523803
-0.26236141 0.26893756 2.1417155 nan nan nan nan
-0.15771827 0.26441768 2.1237676 -0.95046914 0.21409123 -0.22532973 0.019959962
-0.089357845 0.2633715 2.1251252 nan nan nan nan
0.85810459 -0.16246918 2.2360833 nan nan nan nan
0.85628867 -0.10667896 2.2307768 -0.93818581 -0.34246168 -0.050273176 0.00032273473
0.85909104 -0.012500139 2.2216804 -0.93701488 -0.34603602 0.047563057 0
0.67474383 0.11528468 2.2164617 -0.09160544 -0.70179921 -0.70646042 0.0074764364
0.74089724 0.099094987 2.2269759 -0.25985789 -0.73656899 -0.62445176 0
0.83804047 0.085289836 2.2226582 0.34849268 0.92213547 -0.16798526 0.10662923
-0.32314417 0.22134413 2.228863 -0.1164526 -0.71547204 -0.68886763 0.042119566
-0.25987962 0.19675925 2.2469585 -0.13386008 -0.86106098 -0.49056634 0.022811715
-0.13250917 0.17530276 2.2454164 nan nan nan nan
-0.10698602 0.15403703 2.2110004 nan nan nan nan
0.65260023 0.14595048 2.1909866 0.23375981 -0.84363025 -0.4833678 0.13208412
0.86191964 -0.16462535 2.327246 nan nan nan nan
0.85969478 -0.10626911 2.3214972 -0.81484151 -0.50113368 -0.29137325 0.00082845561
0.75272959 0.023926167 2.3382564 -0.054087512 -0.74561429 -0.66417903 0.016926529
0.8490476 0.0085360501 2.3283534 -0.48047781 -0.50948894 -0.71383625 0.04694945
-0.24858814 0.14451678 2.3120558 -0.73083174 -0.67544436 -0.098284483 0.008401827
-0.1375303 0.12232302 2.3734133 nan nan nan nan
0.68740934 0.073756322 2.2808375 -0.019897945 -0.81570101 -0.57813138 0.030364031
0.74149412 0.058787711 2.2902994 -0.10882249 -0.81720644 -0.56597829 0.0001958448
0.83338708 0.053228416 2.2823088 -0.36273432 -0.88135684 -0.30271098 0.02025114
-0.24958652 0.14994703 2.3039482 -0.73097056 -0.67529649 -0.098267742 0.0083894152
-0.14004341 0.15617144 2.3186429 nan nan nan nan
0.86511165 -0.1617893 2.4028831 -0.56765515 -0.81494784 0.11673784 0
0.79113179 -0.054783717 2.4652584 -0.22068433 -0.69522178 -0.68407977 0.053743273
0.85889381 -0.088400111 2.4350674 nan nan nan nan
-0.14405429 0.048619069 2.4346387 nan nan nan nan
0.76653183 -0.025449743 2.4237123 -0.17508329 -0.80050159 -0.57318681 0.02884534
0.83481604 -0.029571997 2.4146614 -0.24714722 -0.87349784 -0.41942787 0.041394636
-0.14327151 0.079575285 2.4318638 nan nan nan nan
0.77854133 -0.073247567 2.4953153 -0.10534278 -0.91077018 -0.39924985 0.076573677
0.84153163 -0.10559399 2.5281439 -0.45080736 0.88947231 0.074911527 0.00099491887
0.76154536 -0.048028462 2.483896 0.067074157 -0.78767526 -0.61242861 0.032989863
0.86547738 -0.16852289 2.6341031 -0.57810014 -0.80993301 -0.099039353 0.024275707
0.90912181 -0.17374419 2.6400208 -0.76714474 -0.61453611 0.18394122 7.6820157e-05
0.86392593 -0.14373817 2.60075 -0.12338371 -0.7094875 -0.69383281 0.056863826
0.90621001 -0.1477204 2.5974965 0.073178805 -0.84939939 -0.52265233 0.084933631
0.88726717 -0.19630791 2.6822109 0.60762042 -0.50583673 -0.61231244 0.00138992
-1.6507231 -1.1432528 3.2195761 nan nan nan nan
-1.6352094 -1.1274203 3.1897678 nan nan nan nan
-1.7315093 -1.2318246 3.3749323 nan nan nan nan
-1.5663952 -1.2335538 3.3705809 nan nan nan nan
-1.7012271 -1.2048408 3.3456717 nan nan nan nan
-1.6622095 -1.1885118 3.3328817 nan nan nan nan
-1.5547025 -1.2198213 3.3673577 nan nan nan nan
-1.7805799 -1.3017632 3.4769671 nan nan nan nan
-1.7297546 -1.2662849 3.4498327 nan nan nan nan
-1.6246717 -1.2563113 3.4337823 nan nan nan nan
-1.5611504 -1.2573619 3.4376817 nan nan nan nan
-1.6192431 -1.2209283 3.4037063 nan nan nan nan
-1.7879509 -1.3266912 3.5458007 0.00028438217 -0.88989186 -0.45617145 0
-1.7623609 -1.326406 3.5451133 nan nan nan nan
-1.6252382 -1.3240012 3.5414081 nan nan nan nan
-1.7839197 -1.3150678 3.5227351 nan nan nan nan
-1.7294471 -1.307241 3.5300088 nan nan nan nan
-1.6110153 -1.3073061 3.518518 nan nan nan nan
-1.5668632 -1.2981185 3.5188251 nan nan nan nan
-1.7297956 -1.3385054 3.5805576 nan nan nan nan
-1.5869976 -1.3339845 3.5766513 nan nan nan nan
-1.5449356 -1.3366429 3.5766549 nan nan nan nan
-1.5680907 -1.3181527 3.5757713 0.001011046 -0.042338669 -0.99910277 0
-0.42502818 -0.37094846 1.0059125 nan nan nan nan
-0.42046365 -0.34151089 1.0018754 0.84870511 0.292274 -0.44076708 0.014851664
-0.38990894 -0.37723053 1.0380245 0.76704669 0.19387616 -0.61159748 0
-0.35532388 -0.38720411 1.0850607 0.42558318 0.45511314 -0.7821452 0.00017323426
-0.39622238 -0.31551051 1.0466918 0.83748007 0.23347405 -0.49408194 0.0052483673
-0.36102679 -0.34353134 1.0934432 0.84247577 0.039035413 -0.53731811 0.0027708434
-0.41231397 -0.22007592 1.0583059 0.83903533 0.18311295 -0.51233727 0.016147289
-0.43144807 -0.12099726 1.0697246 0.71882457 0.36433953 -0.59207088 0.022713428
-0.46014103 0.016930688 1.079235 0.89593548 0.21155401 -0.39056948 0.013829567
-0.44841799 -0.031244297 1.0797132 0.88964701 -0.034966826 -0.4553082 0.023323404
-0.46569815 0.056358535 1.0879637 0.83659166 0.22986594 -0.49726853 0.01369535
-0.30855218 -0.40070134 1.1610774 0.90492898 0.22622575 -0.3604517 0.00016801458
-0.26962301 -0.44318345 1.2074412 -0.92804587 0.21873641 -0.30147201 0.00023509639
-0.37083134 -0.27695805 1.1092026 0.8638308 0.035174329 -0.50255269 0.0019968059
-0.33311719 -0.31790107 1.1552452 0.84490299 0.23481275 -0.48062655 0.0018564301
-0.37884197 -0.2069957 1.1261179 0.84953654 0.23181731 -0.47386545 0.0027578855
-0.34793764 -0.22434777 1.1726247 0.86106193 0.18912633 -0.47202083 0.0074662557
-0.39313987 -0.11242712 1.1438365 0.85880709 0.14996019 -0.48985943 0.0047354707
-0.35753986 -0.14551245 1.1896125 0.85336882 0.16796951 -0.49350587 0.0013324817
-0.45795134 0.034708932 1.0966069 0.86039293 0.23984599 -0.44966421 0.0048769522
-0.41835913 -0.013617795 1.1437188 0.79578072 0.16679867 -0.58216077 0.0058052568
-0.463994 0.097493485 1.1130913 0.83519691 0.22034727 -0.50387818 0.0016132436
-0.43537638 0.07980746 1.1550155 0.84655708 0.2367311 -0.47675934 0.0087442864
-0.46948496 0.18950762 1.1428814 0.79812819 0.0077561317 -0.60243779 0.011057798
-0.44496921 0.16458303 1.1737885 0.83623677 0.14474198 -0.52892137 0.0086230151
-0.48385999 0.28410754 1.1626669 nan nan nan nan
-0.49939993 0.36177203 1.1704863 0.8323791 0.20613016 -0.51444674 0.024555061
-0.21427116 -0.47533903 1.288479 nan nan nan nan
-0.27750096 -0.38834631 1.2210648 0.80865747 0.24114497 -0.53658384 0.00017473019
-0.24251595 -0.41826698 1.2642875 0.81289977 0.20913488 -0.54355931 0.00087247964
-0.28791699 -0.30826899 1.2365823 0.83456361 0.24460609 -0.49363083 0.00033249427
-0.25522861 -0.32564521 1.2833369 0.82974446 0.16937591 -0.53182328 0.00053391181
-0.30453813 -0.21326549 1.2495145 0.82022923 0.21103142 -0.53168577 0.0016949001
-0.26411939 -0.25524381 1.2966628 0.82839215 0.17932777 -0.53066742 0.0029662848
-0.36648217 -0.078686573 1.2064887 0.84000111 0.24707471 -0.48306543 0.000323074
-0.33041292 -0.1155775 1.2496754 0.81513959 0.22776583 -0.53260708 0.00066577806
-0.37578133 -0.004379468 1.2231303 0.83973813 0.19623753 -0.50629109 0.0027264627
-0.34390071 -0.021858566 1.2683907 0.86686593 0.18665393 -0.46228102 0.0045700734
-0.39034787 0.090760887 1.2381287 0.84647793 0.19617584 -0.49496487 0.0032597862
-0.35368368 0.056387354 1.2866449 0.86906517 0.16967815 -0.46468806 0.0068797055
-0.45466235 0.23037663 1.190551 0.81039393 0.20239 -0.5498181 0.0018782049
-0.4153246 0.1886514 1.2374054 0.85452926 0.20998254 -0.47506526 0.0035326851
-0.46250799 0.30022487 1.2064244 0.83990812 0.20056336 -0.50431007 0.0028543328
-0.43070409 0.27883884 1.2501179 0.8347432 0.18076186 -0.52012402 0.0036002875
-0.4765794 0.35302019 1.2040925 0.80660719 0.21080443 -0.55221951 0.0086130053
-0.44786671 0.34167963 1.2363689 0.86061156 0.21967782 -0.4594447 0.026286552
-0.18520352 -0.48050594 1.3303322 0.7923702 0.13105801 -0.59579635 0
-0.14897642 -0.49381882 1.3826879 0.79926729 0.24328229 -0.54953206 0.008900959
-0.19516242 -0.40916961 1.3450992 0.82716888 0.15360714 -0.54055202 0.0038328746
-0.16030335 -0.42843607 1.3926756 0.78590685 0.24211195 -0.56897467 0.0038076302
-0.21438172 -0.31418616 1.3551959 0.85250747 0.16128668 -0.49721 0.00041678545
-0.16954291 -0.35706836 1.4067162 0.84621412 0.13462976 -0.51555449 0.0038873609
-0.27318236 -0.18803056 1.315528 0.84157312 0.1611896 -0.51553142 0.0032822555
-0.23876685 -0.21768044 1.3586029 0.72111315 0.13283817 -0.67996317 0.0089394217
-0.28360018 -0.10683307 1.3325613 0.82783562 0.20146753 -0.52354473 0.0032533917
-0.25019133 -0.12363666 1.3803002 0.83273441 0.14716648 -0.53375596 0.020633284
0.125631 -0.0819785 1.3974692 -0.3913562 -0.45657724 -0.7989853 0.030123109
0.19052421 -0.090239286 1.3878212 -0.27861524 -0.79484099 -0.53907454 0.0030104956
0.28931457 -0.096701369 1.3774567 -0.08891701 -0.74805516 -0.65765285 0.0092583885
0.37271634 -0.099061847 1.3803512 0.14221096 -0.6974647 -0.70236677 0.00062267249
-0.30190071 -0.01041507 1.3445226 0.86891598 0.1449876 -0.47324812 0.0023448355
-0.25850272 -0.056112096 1.3945432 0.83194226 0.16823883 -0.52874172 0.0081806611
0.1242528 -0.054023206 1.3943518 -0.47198045 -0.044069249 -0.88050687 0.005102287
0.19584188 -0.033642896 1.3753605 -0.30047941 0.57327199 -0.76228029 0.0033371272
0.29039648 -0.028450344 1.3412839 -0.36377513 0.21656938 -0.90596104 0.0041234149
0.37218821 -0.035384074 1.3369215 0.4411225 -0.4026404 -0.80205458 0.055308562
-0.36128262 0.11894736 1.3012328 0.83233804 0.19636327 -0.51831919 0.0052021286
-0.32642028 0.087597519 1.3459505 0.82642943 0.18751928 -0.53089637 0.014377073
0.23251271 0.031358965 1.3930442 -0.38107845 0.55550075 -0.73905212 0.0013203492
0.30229586 0.054422151 1.3747581 -0.32332739 0.4776836 -0.81687075 0.00059104071
0.36786729 0.066161484 1.3637441 -0.24680367 0.25171179 -0.93580401 0.059816912
-0.37084243 0.1978256 1.3172079 0.75762171 -0.057247769 -0.65017849 0.012620352
-0.33882433 0.18219371 1.3641471 0.83356941 0.18157038 -0.52172238 0.016536895
0.38026792 0.12118515 1.3931231 -0.08469744 0.37297213 -0.92396867 0.040504579
-0.38717398 0.26563931 1.3178399 0.86958814 0.22364955 -0.44022423 0.01581832
-0.34559375 0.24537739 1.3726188 0.73836172 0.13315114 -0.66112995 0.038731024
-0.046919838 -0.56777042 1.5104948 0.83757734 0.12225401 -0.53246427 0.0065778345
0.83595157 -0.59589559 1.5116167 nan nan nan nan
-0.10094246 -0.5012145 1.4543476 0.81623596 0.23322105 -0.52855164 0.0036855054
-0.064307377 -0.52963573 1.4980683 0.80433327 0.25340435 -0.53743303 0.015058165
0.87668049 -0.56917882 1.50564 nan nan nan nan
-0.12240684 -0.41351306 1.4597484 0.84304082 0.16679572 -0.51133287 0.00043006765
-0.17905912 -0.29291463 1.4242369 0.8165977 0.32066789 -0.47993782 0.0054353145
-0.14506981 -0.31851602 1.4658173 0.82551885 0.22155409 -0.51906866 0.0053295526
-0.19085246 -0.20712435 1.4432451 0.80351943 0.19327216 -0.56302959 0.0096112732
-0.15639079 -0.23106211 1.4869013 0.81271505 0.21662213 -0.54089653 0.013062202
0.21893999 -0.17440245 1.5003062 -0.12500921 -0.83537567 -0.53527582 0.021160072
0.28450513 -0.178056 1.4988747 -0.11926787 -0.92998612 -0.3477082 0.015005519
0.38609105 -0.18184534 1.4995855 -0.066110678 -0.83763433 -0.54221588 0.0031759858
0.43714359 -0.18126255 1.5014219 0.52451223 -0.66848904 -0.52726591 0.015220582
-0.2123917 -0.11121525 1.451031 0.85333496 -0.022517333 -0.52087659 0.01877862
0.00028924644 -0.098261788 1.4521735 0.13324365 -0.24940395 -0.95918912 0.031671178
0.084989637 -0.11471435 1.4450454 -0.14543645 -0.74978602 -0.64549917 0.0037219855
0.18485086 -0.13585433 1.4511472 -0.17496222 -0.76598001 -0.61859757 0.00133378
0.28458869 -0.1434305 1.4477216 -0.062153619 -0.87318271 -0.48341385 0.00066652306
0.38944018 -0.14195494 1.4466324 0.25079596 -0.75434685 -0.60668129 0.0028533898
0.44860896 -0.12999387 1.4802921 0.77320868 0.010574721 -0.63406354 0.010181463
-0.2684831 0.011526339 1.4117184 0.84456813 0.22918084 -0.48392239 0.021658139
-0.23599845 -0.014462177 1.4539907 0.74965298 0.09940508 -0.65432328 0.011070433
-0.0020895004 -0.02306952 1.4646617 -0.40291724 0.47016001 -0.78524351 0.0025154648
0.085533001 -0.016850311 1.430539 -0.35306823 0.48218545 -0.80177301 0.0027456034
0.16550732 0.0092059672 1.4107379 -0.35628054 0.46351662 -0.81130546 0.0016739676
0.4258118 -0.067393661 1.4141114 0.86741018 -0.075327218 -0.49185929 0.0093919048
0.45243344 -0.075863555 1.4842733 0.79476494 0.29485407 -0.53048068 0.032925121
-0.27859995 0.096916184 1.4303223 0.87263209 0.095635213 -0.4789229 0.0080859642
-0.24643514 0.07877934 1.4760398 0.76182401 0.15334134 -0.62937319 0.049887497
0.032406062 0.042057712 1.4910765 -0.34679884 0.54131061 -0.7659722 0.00086646038
0.10179956 0.06486617 1.4741752 -0.37865406 0.46992806 -0.79736364 0.0014214738
0.19198449 0.07701996 1.4399809 -0.3685874 0.47987574 -0.7961548 0.00090502965
0.28001857 0.098346904 1.4131278 -0.35759801 0.45504415 -0.81551117 0.00038781876
0.35846895 0.1171411 1.3995163 -0.24756521 0.35624561 -0.90099972 0.018328762
-0.29843101 0.17682858 1.4295551 0.85486859 0.14822146 -0.49722236 0.018775409
-0.25176251 0.15816325 1.4873788 0.8874526 0.14476754 -0.43757302 0.021893853
0.21191129 0.15315512 1.4774916 -0.38700071 0.45809996 -0.80023426 0.0016705313
0.29761669 0.17099987 1.4497473 -0.32986295 0.51109964 -0.79370505 2.9672474e-05
0.37242943 0.17181318 1.4278772 0.095550083 0.34787929 -0.9326576 0.06102616
0.32685554 0.23883218 1.4799944 -0.33457327 0.49209857 -0.80367881 0.0041982862
0.37684321 0.24864152 1.4726616 -0.2201224 0.33678967 -0.91548836 0.012253629
0.041088514 0.63206583 1.4728831 -0.131533 -0.85053325 -0.50920761 0.0066569103
0.12533703 0.62656081 1.4717033 -0.26243979 -0.87099856 -0.41531536 0.0029674224
0.21435021 0.6211285 1.4676864 -0.1293968 -0.86223757 -0.48969677 0.0011140376
0.31185251 0.61406034 1.4608823 -0.10600623 -0.81671399 -0.56722212 0.0062841498
0.41147396 0.60484433 1.4559778 -0.085254438 -0.84891444 -0.52160883 0.0020743201
0.51033092 0.59820539 1.4510194 -0.064207762 -0.85190672 -0.51974249 0.0021649995
0.61098111 0.59149319 1.4460379 -0.15385552 -0.87355107 -0.46177599 0.0043350677
0.70971739 0.58271456 1.4414967 nan nan nan nan
0.80939615 0.57323664 1.4385539 nan nan nan nan
0.90202749 0.55797309 1.4376158 nan nan nan nan
0.96142757 0.52740109 1.4762692 -0.063716143 -0.83180249 -0.55140257 0
-0.35696271 0.67558187 1.4698209 -0.15344895 -0.88871396 -0.43201959 0.0015088089
-0.27159095 0.66847581 1.4687365 -0.095538825 -0.86245269 -0.49703893 0.00613828
-0.18332964 0.66277272 1.4671322 -0.019187549 -0.85724717 -0.51454747 0.0097122965
-0.085736841 0.65451223 1.465359 -0.068753093 -0.86595702 -0.49537009 0.0023071773
0.011541948 0.64636898 1.4620477 -0.079668254 -0.85525846 -0.51204097 0.00054515753
0.10859376 0.63989544 1.456641 -0.081416771 -0.83291864 -0.54737359 0.0063350135
0.20883517 0.63455737 1.446262 -0.08719071 -0.85074997 -0.51828796 0.00012445485
0.30961859 0.6298089 1.4367279 -0.11930401 -0.8464874 -0.51886958 0.0015147785
0.40894201 0.62424231 1.4284602 -0.10497722 -0.82773376 -0.5512138 0.0011103028
0.50864607 0.61955768 1.4207925 -0.12116357 -0.84476334 -0.52124292 0.0016996289
0.58608723 0.61597353 1.4159896 0.48842713 -0.65911096 -0.57184929 0.0020270364
-0.0049291849 -0.57966512 1.571741 0.844684 0.36893734 -0.38780683 0.11522283
0.023948036 -0.59690261 1.6098157 0.88873512 0.40176055 -0.22076763 0.061650336
0.19321719 -0.60780287 1.6106249 -0.12257624 0.88583392 -0.44751912 0.010602757
0.27548236 -0.60417515 1.6082441 -0.022869634 0.43578604 -0.89975965 0.008476276
0.37406641 -0.5998385 1.6061193 -0.059252191 0.48332134 -0.8734355 0.002395737
0.47007412 -0.59758484 1.6017809 0.0045386362 0.51271564 -0.85854656 0.0099350605
0.56990951 -0.59860837 1.5953374 -0.044612955 0.53367561 -0.84451169 0.0026218945
0.67141223 -0.6013062 1.5892507 -0.19028869 0.51023769 -0.83871788 0.00079351565
0.77032423 -0.60313094 1.5825093 0.3353039 0.45914108 -0.82265472 0
0.83434165 -0.60388124 1.568271 0.22486278 0.17027304 -0.95939761 0.00031389014
-0.076678485 -0.46401089 1.5146928 0.81440258 0.28066146 -0.5079149 0.017194293
-0.029077813 -0.51350015 1.5615643 0.67668313 0.34300518 -0.65149623 0.0051158504
0.4941653 -0.57515907 1.6117491 -0.086613365 0.45956185 -0.88391238 0.010897528
0.57843971 -0.57071906 1.6090605 -0.034830645 0.45790949 -0.88831627 0.0050652875
0.67668605 -0.56773126 1.6064615 -0.070296407 0.55544072 -0.8285796 0.0016104741
0.7753278 -0.56441838 1.6031095 -0.097163819 0.34715456 -0.93276095 0
0.8640126 -0.53621322 1.5579615 -0.81119382 0.36177331 0.45943955 0
0.93287241 -0.50594664 1.5720398 nan nan nan nan
-0.084505871 -0.3973307 1.5295542 0.86750638 0.22924857 -0.44144964 0.016865525
-0.051278114 -0.41962257 1.5702409 0.73784727 -0.010578278 -0.6748848 0.013115614
-0.098143473 -0.30753842 1.5485607 0.8617788 0.17881235 -0.47472456 0.00060763455
-0.063397616 -0.33244082 1.5906618 0.82681805 0.17437917 -0.53475595 0.006125256
-0.16703168 -0.16732581 1.5045027 0.84190989 0.017729456 -0.53932673 0.010628197
-0.12384295 -0.20988017 1.5501536 0.80773085 0.0071966625 -0.58950746 0.015191328
0.02749747 -0.1718097 1.5443347 -0.20609428 -0.81779677 -0.53733939 0.011014419
0.087448001 -0.18978429 1.5581158 -0.0041282186 -0.89901936 -0.43788946 0.011275264
0.18404239 -0.19971785 1.5534738 -0.047457725 -0.8321076 -0.55257994 0.011330807
0.28397235 -0.20982017 1.553303 0.13839826 0.9528985 -0.26987112 0.0067362492
0.37909585 -0.20835942 1.5413508 0.075299442 -0.83671731 -0.54243356 0.014740131
0.46579695 -0.19763564 1.5466496 0.46973944 -0.60027307 -0.64731532 0.037609346
-0.17516434 -0.092879117 1.5183862 0.8816359 0.16560774 -0.44191885 0.003215784
-0.14263326 -0.11648312 1.5604159 0.64812624 -0.030515803 -0.76092118 0.0073229373
0.019384682 -0.15427977 1.5170106 0.04607407 -0.78877538 -0.61295235 0.0075943423
0.077360108 -0.16179271 1.5131514 0.21189086 -0.85105181 -0.48043001 0.004282455
0.16400573 -0.16996661 1.5059388 -0.083831087 -0.81430173 -0.57435614 0
0.48832223 -0.15105973 1.5540477 0.9400562 0.12348405 -0.31787732 0.00070433697
-0.18837133 -0.0040577985 1.5360949 0.86017996 0.10533077 -0.49899492 0.015844431
-0.15319908 -0.031367723 1.5819088 0.76841873 -0.052153677 -0.63781869 0.035366081
-0.031339437 0.022571586 1.505484 -0.30421159 0.54803282 -0.77917606 0.024519563
0.46059939 -0.06367521 1.5092312 0.92836493 0.1659627 -0.33255818 0.064120978
-0.21230468 0.088097394 1.5363774 0.8561309 0.17189153 -0.4873327 0.014742781
-0.0049175471 0.086030602 1.5341327 -0.35056406 0.49622193 -0.79427242 0.0026529953
0.078017041 0.10738641 1.5102017 -0.39576155 0.51693976 -0.75904298 0
0.14446777 0.12821241 1.4959878 -0.37312987 0.50996715 -0.77505326 0.002067372
-0.24480084 0.14945093 1.5048547 0.7919932 0.23155524 -0.56491494 0.032165617
0.0098269731 0.16052249 1.5722549 -0.38062406 0.48659012 -0.78635573 0.00170492
0.097410277 0.17985006 1.5460848 -0.37205881 0.48876169 -0.78910351 0.0015026293
0.18492907 0.19414142 1.5147643 -0.34303078 0.49402985 -0.79891449 0.0013239385
0.25789782 0.21870357 1.4958186 0.069995172 -0.99695444 -0.034389753 0.002288583
0.12672225 0.24925753 1.5753856 -0.42590976 0.63018113 -0.64920932 0.0028005885
0.20519666 0.27123353 1.5542003 -0.35228047 0.52865642 -0.7722829 0.00152727
0.29421106 0.28137365 1.5221461 -0.31332499 0.50896883 -0.80173451 0.0010816719
0.37876582 0.29935527 1.504377 0.06068179 0.20799382 -0.976246 0.08104939
0.24076536 0.33576334 1.5778 -0.38663992 0.42423376 -0.8188622 0.0017902545
0.31298989 0.35853475 1.5617763 -0.35256928 0.5367642 -0.76653707 0.0025630051
0.38576043 0.37282377 1.5483427 -0.065233402 -0.091906682 -0.99362856 0.040837321
0.40318885 0.43459496 1.5764271 0.097631618 0.45208412 -0.88661605 0.11523081
0.51969182 0.51876342 1.5756375 -0.071665235 -0.87990701 -0.46971017 0.0094154328
0.6200366 0.51253229 1.5716324 -0.13338341 -0.86144978 -0.49001342 0.00083664875
0.7085216 0.50663364 1.5639408 -0.11982768 -0.8046903 -0.58147633 0.00081980776
0.80786002 0.50127822 1.5626853 0.022955252 -0.89019316 -0.45500454 0.00096610322
0.90935576 0.49129874 1.5548352 -0.14934942 -0.65115213 -0.74410719 0.010040667
0.97848141 0.48288399 1.5489382 -0.068755433 -0.82212096 -0.56514579 0.0023069016
-0.67716324 0.65433687 1.5639781 -0.11219488 -0.84524977 -0.5224607 0.0039577358
-0.58802176 0.64778602 1.5571148 -0.1168668 -0.84870332 -0.51579535 0.0095772278
-0.48699918 0.64173132 1.5544723 -0.12364268 -0.86526972 -0.48581967 0.00087800669
-0.38823459 0.63504499 1.5466565 -0.085633025 -0.88501203 -0.45762503 0.0064853267
-0.29022762 0.62736207 1.5428429 -0.1476422 -0.88219297 -0.44714355 0.0017673993
-0.18930528 0.62151235 1.538407 -0.041121434 -0.89039713 -0.45332333 0.0094791185
-0.08953546 0.61484343 1.5308743 -0.080962583 -0.83100981 -0.55033416 0.021305699
0.0096945167 0.60778379 1.5265472 -0.099351481 -0.8326906 -0.5447529 0.0061515328
0.10794701 0.59746385 1.5247322 -0.093168445 -0.85300374 -0.51352149 0.0023706404
0.20787847 0.5867244 1.5262089 -0.10780712 -0.85390258 -0.50914437 0
0.30786777 0.57563448 1.527091 -0.075907715 -0.83646464 -0.54273832 0.0016397756
0.40743151 0.56267154 1.5278318 -0.12073757 -0.87383348 -0.4709962 0.001920009
0.50740892 0.55207735 1.5276499 -0.092002042 -0.83852267 -0.53704327 0.00091489567
0.60599107 0.54449409 1.5226898 -0.010289697 -0.88276845 -0.46969566 0.0005146063
0.70636785 0.53746599 1.51647 -0.049306542 -0.85431373 -0.51741374 0
0.80748129 0.53034782 1.5135696 -0.19455826 -0.85825449 -0.47491729 0.0013549053
0.90348518 0.52015597 1.5077646 0.14636537 -0.88053006 -0.4508259 0.0069636805
0.96458089 0.51258552 1.4983296 nan nan nan nan
-0.67557991 0.67683834 1.5276545 -0.057732664 -0.82261419 -0.56566137 0.0086618001
-0.59048486 0.67590743 1.5191008 -0.078909665 -0.86445642 -0.49647593 0.0053803022
-0.49010625 0.67003131 1.5098658 -0.057115473 -0.8775605 -0.47605178 0.0019031173
-0.39045337 0.66478896 1.5000038 -0.19393644 -0.76006818 -0.62022978 0.003736492
-0.29206488 0.65767801 1.4939495 0.038983408 -0.83519673 -0.54856789 0
-0.19370374 0.65138441 1.4894893 -0.096516147 -0.84674114 -0.52317691 0.0063325516
-0.096212402 0.64410168 1.4847585 -0.085666656 -0.86938828 -0.4866468 0.0012859311
-0.0058245361 0.63772631 1.4800375 -0.1007442 -0.86440605 -0.49259803 0.00069700868
0.019144073 -0.56865686 1.6176025 0.68120188 0.27846646 -0.67706758 0.038828909
0.071158551 -0.58782899 1.6316806 0.24055523 0.28022149 -0.92930573 0.051896084
0.16566908 -0.5882712 1.6283194 0.051771153 0.40153542 -0.91437906 0.0072600399
0.26612175 -0.58230388 1.6217415 -0.052939322 0.60229874 -0.79651344 0.010725272
0.36146551 -0.57987148 1.6207776 -0.027252598 0.52456605 -0.85093349 0.014770658
0.44135579 -0.57829696 1.6196424 -0.21591459 0.59680349 -0.77279133 0.010046778
0.01079613 -0.49879909 1.6301219 -0.8392905 0.1941407 -0.50783932 0
0.072220869 -0.51297534 1.672608 0.16678233 0.47790056 -0.86243534 0.0119661
0.17310184 -0.51676524 1.6654261 -0.07101848 0.45164347 -0.88936746 0.0068321838
0.27321208 -0.5205723 1.6575601 -0.11847581 0.45104954 -0.88460028 0.0058729309
0.37304884 -0.52353734 1.6490256 -0.10424119 0.50095475 -0.85917288 0.0027249597
0.47222376 -0.52483308 1.6427318 -0.086320005 0.57163692 -0.81595355 0.00012143492
0.57156765 -0.52185136 1.6383072 -0.036387805 0.22181208 -0.97441024 0.0067499131
0.67113733 -0.51754731 1.6346369 -0.049457114 0.36678469 -0.9289903 0.0022797142
0.77127111 -0.51375371 1.631597 -0.026213644 0.48952001 -0.87159801 0
0.86256778 -0.50550807 1.6303689 0.71941489 0.34999529 -0.59995466 6.4776475e-05
0.94582999 -0.49812287 1.6252003 nan nan nan nan
-0.0045675337 -0.40662351 1.6495967 0.89056599 0.32297242 -0.32028276 0.031061001
0.060580336 -0.444949 1.7027085 -0.097027868 0.016124167 -0.99515104 0.086196959
0.18084162 -0.45401686 1.7001196 -0.70293856 -0.42542675 -0.56999081 3.4300992e-05
0.27814496 -0.44787744 1.6984162 -0.072358035 0.49549222 -0.86559331 0.0057979696
0.37831485 -0.44311425 1.6934153 -0.10477764 0.30985665 -0.94499236 0.0028552809
0.47720465 -0.43625256 1.6897023 -0.037433468 0.46685979 -0.88353872 0.0060481904
0.57692182 -0.43476444 1.6844519 -0.053448495 0.48026881 -0.87549126 0.003512237
0.67564964 -0.43230316 1.6810193 -0.066400103 0.54329431 -0.83691239 0.00090492493
0.77517128 -0.43594325 1.6734132 -0.028660672 0.42581889 -0.90435439 0.00099551002
0.87577975 -0.43949819 1.6665314 nan nan nan nan
0.95968854 -0.4385241 1.660422 nan nan nan nan
-0.073460147 -0.26875558 1.6087563 0.83908564 0.021718532 -0.54356551 0.023397174
-0.030154675 -0.31104764 1.6534086 0.8994174 -0.41428322 -0.13934712 0.026857333
0.69029796 -0.37445292 1.7089595 0.0021592714 0.42270532 -0.90626454 0.013909503
0.77688038 -0.37403756 1.7064569 -0.054072097 0.4756344 -0.87797958 0.0011496147
0.87950182 -0.37104595 1.7038909 -0.078372352 0.44763216 -0.89077675 0.00042605333
0.97381175 -0.36939463 1.6987902 nan nan nan nan
-0.081975773 -0.19828735 1.6231958 0.78475237 0.37212792 -0.49566582 0.038474917
-0.048188046 -0.21538487 1.6704723 0.67141116 0.011821052 -0.74099064 0.030469555
0.098952956 -0.23530525 1.6330158 -0.063487574 -0.8694039 -0.49000642 0.0006606878
0.17391893 -0.24204908 1.627056 -0.24851915 -0.88527101 -0.39310738 0.013541726
0.25462762 -0.2428641 1.6080761 -0.045946784 -0.86995322 -0.490989 0.079217836
-0.098706707 -0.10692416 1.6339186 0.86410391 0.14474754 -0.48205045 0.0011713004
-0.054343522 -0.14039913 1.6847829 0.77334118 -0.30304483 -0.55687273 0.0053160801
0.51199877 -0.10366158 1.6111227 0.84683454 -0.12824367 -0.51616359 0.02921286
-0.16273272 0.033865735 1.5976151 0.7753213 0.20422009 -0.59763789 0.042038418
