# .PCD v0.7 - Point Cloud Data file format
VERSION 0.7
FIELDS x y z
SIZE 4 4 4
TYPE F F F
COUNT 1 1 1
WIDTH 1595
HEIGHT 1
VIEWPOINT 0 0 0 1 0 0 0
POINTS 1595
DATA ascii
0.65739 -0.53018999 -1.4874001
-0.15839 -0.36177 -1.7785
-0.75730002 -0.37386 -1.2595
0.1074 0.4077 -1.6895
-0.33895001 0.075779997 -1.1098
0.64960003 -0.53371 -1.4833
-0.16131 -0.36003 -1.7788
-0.76244003 -0.37985 -1.2523
-0.75204998 -0.37322 -1.2304
0.43823001 -0.15778001 -1.335
-0.94011003 -0.46169001 -1.5221
-0.15996 -0.64125001 -1.2765
0.28646001 -0.31830001 -1.8594
-0.67848998 -0.45127001 -1.3197
-0.96987998 -0.47479999 -1.5653
0.41786999 -0.056600001 -1.16
-0.37867001 -0.63189 -1.2869999
0.87849998 -0.47896001 -1.579
-0.79952002 -0.33217999 -1.3484
-0.43856999 -0.63233 -1.2878
0.81572002 -0.47724 -1.5786999
-0.44784999 -0.63042998 -1.2872
0.80839002 -0.47865 -1.5779999
-0.017623 -0.30974001 -1.8657
-0.45567 -0.63130999 -1.2889
0.79429001 -0.47724 -1.5786999
-0.020633001 -0.30992001 -1.8669
-0.46974999 -0.63047999 -1.2872
0.78435999 -0.47907001 -1.5793999
-0.035840001 -0.30835 -1.8697
-0.47228 -0.63060999 -1.2875
0.77709001 -0.47747001 -1.5795
-0.045079 -0.30807999 -1.8681
-0.48579001 -0.63010001 -1.2833
0.76981997 -0.47573 -1.5795
-0.49879 -0.63237 -1.2847
0.75945002 -0.47887999 -1.5788
-0.50840002 -0.63069999 -1.2845
0.74812001 -0.47841001 -1.5772001
-0.10317 -0.3082 -1.8688
-0.54852003 -0.63081998 -1.2848001
0.70696998 -0.47832999 -1.5769
-0.55953002 -0.63064998 -1.2876
0.69673997 -0.47516 -1.5777
-0.12763 -0.30816001 -1.8686
-0.56853998 -0.63303 -1.2828
0.68654001 -0.47968 -1.576
-0.58484 -0.63031 -1.2869
0.66802001 -0.47898 -1.5791
-0.64749002 -0.63138002 -1.2859
-0.20725 -0.30813 -1.8684
0.60925001 -0.47578999 -1.5798
-0.65464002 -0.63050997 -1.2841001
-0.21037 -0.30825999 -1.8692
0.59924001 -0.47716999 -1.5785
-0.67298001 -0.63022 -1.2898999
0.57710999 -0.47391 -1.5796
-0.68857998 -0.63080001 -1.2879
0.56800002 -0.47582 -1.5798
0.41740999 -0.44203001 -1.4523
-0.78744 -0.63009 -1.2833
-0.34965 -0.30835 -1.8697
0.46083 -0.47751999 -1.5796
-0.39629 -0.30996001 -1.8671
0.41927999 -0.47588 -1.58
-0.40902999 -0.30811 -1.8683
-0.84878999 -0.63085002 -1.2817
0.40978 -0.47988999 -1.5767
0.55269003 -0.24815001 -1.6247
-0.42124999 -0.30974001 -1.8657
-0.86838001 -0.63063002 -1.2844
0.38981 -0.47566 -1.5793
-0.98966998 -0.63077003 -1.2847
0.26192999 -0.47384 -1.5793999
0.42532 0.29111999 -1.489
0.15219 -0.47676 -1.5771
0.14972 -0.47555 -1.5789
0.093335003 -0.47235 -1.58
-0.67828 -0.11509 -1.1390001
0.061209999 -0.47351 -1.5783
-0.68002999 -0.11271 -1.1382
-0.33002001 0.43511 -1.7682
-0.79128999 -0.38738999 -1.3396
0.053323999 -0.4707 -1.58
0.040081002 -0.47549999 -1.5788
0.03754 -0.47586 -1.58
0.013617 -0.47233 -1.5799
0.27684 0.29131001 -1.49
0.00039738 -0.47384 -1.5793999
0.40318999 -0.34940001 -1.3482
0.79843998 -0.64170998 -1.2839
-0.010182 -0.47374001 -1.579
0.39989999 -0.34347999 -1.3478
-0.81384999 -0.42684999 -1.5885
0.78882998 -0.64195001 -1.2844
-0.026009999 -0.47064999 -1.5798
0.77754003 -0.64195001 -1.2876
-0.039196 -0.47356001 -1.5785
0.76907003 -0.64288002 -1.2894
-0.044452999 -0.47362 -1.5786
0.71600002 -0.64172 -1.2871
-0.097046003 -0.47233999 -1.58
0.67964 -0.64016998 -1.284
-0.1365 -0.47069001 -1.5799
0.59346002 -0.64169002 -1.2839
-0.21822999 -0.47209001 -1.5791
0.033727001 -0.64165998 -1.2773
-0.77618998 -0.47433999 -1.5691
0.69313002 -0.065305002 -1.425
0.19549 -0.62757999 -1.308
-0.61791003 -0.45737001 -1.5992
-0.67692 -0.41016001 -1.3476
-0.50494999 0.36976999 -1.6228
0.30932 0.19935 -1.3347
-0.71556002 -0.17321 -1.26
-0.013604 0.37902001 -1.6396
-0.46000001 0.045743998 -1.0578001
0.52851999 -0.56073999 -1.4349
-0.2852 -0.39030001 -1.7246
-0.82033998 -0.44251001 -1.4539
-0.056708999 0.37726 -1.6397001
-0.49937999 0.045736 -1.0576
-0.32868999 -0.39061001 -1.726
0.42512 -0.54974002 -1.4371001
-0.86593997 -0.44361001 -1.4575
-0.91854 -0.45567 -1.4971
0.40852001 -0.054203 -1.1592
-0.38834 -0.63104999 -1.2884001
0.86944002 -0.47973999 -1.5762
-0.35767999 0.11837 -1.1894
-0.18811999 -0.32073 -1.8521
-0.39892 -0.63767999 -1.279
0.85457999 -0.47960001 -1.5700001
-0.37940001 0.11958 -1.1899
0.60246003 -0.49032 -1.5601
-0.2034 -0.32093 -1.8532
-0.80738002 -0.33610001 -1.3357
-0.41758999 -0.63704002 -1.2776999
0.83617997 -0.47953001 -1.5698
-0.41951999 -0.63141 -1.2891001
0.83671999 -0.47691 -1.5776
-0.81436002 -0.33643001 -1.3482
-0.42853999 -0.6304 -1.2871
0.82988 -0.47711 -1.5783
-0.42871001 0.11825 -1.1881
-0.252 -0.32247001 -1.8503
-0.46836001 -0.63483 -1.2797
0.78969997 -0.47955999 -1.5699
-0.51473999 -0.63006002 -1.2896
0.73468 -0.47547999 -1.5786999
-0.52727002 -0.63011003 -1.2897
0.72535002 -0.47758999 -1.5799
-0.48848 0.11831 -1.1888
-0.31031999 -0.32062 -1.8515
-0.52986997 -0.63467002 -1.2794
0.72008002 -0.47936001 -1.5692
-0.49285001 0.11593 -1.1895
-0.32863 -0.32038999 -1.8501
-0.53757 -0.63492 -1.2799
0.71651 -0.47926 -1.5689
-0.090934999 -0.30836001 -1.8698
-0.53724998 -0.63002002 -1.2895
0.71816999 -0.4774 -1.5792
-0.57977003 -0.63248998 -1.2783999
0.67316002 -0.47935 -1.5692
-0.57928002 -0.63107002 -1.2853
0.67728001 -0.47547999 -1.5786999
-0.59796 -0.63542002 -1.2776
0.65998 -0.47933999 -1.5692
-0.61886001 -0.63420999 -1.2785
0.6311 -0.47961 -1.5700001
-0.66909999 -0.63031 -1.2869
-0.22887 -0.30836999 -1.8699
0.58359998 -0.47569999 -1.5795
-0.63778001 0.11708 -1.1885
-0.46976 -0.32088 -1.853
-0.67992997 -0.63415998 -1.2783999
0.57687002 -0.47960001 -1.5700001
0.0092709996 0.34682 -1.5878
-1.0134 -0.026672 -1.5055
-0.2692 -0.42135 -1.6745
0.46641001 -0.4312 -1.4116
0.48677999 -0.58934999 -1.3769
-0.32453999 -0.41988999 -1.6687
0.40292999 -0.42456999 -1.4097
0.46048 -0.47716001 -1.562
-0.35227999 -0.30978 -1.8660001
-0.79751003 -0.63246 -1.2849
0.45453 -0.47564 -1.5793
-0.80650002 -0.63158 -1.2799
0.44552001 -0.47939 -1.5693001
-0.36829999 -0.30655 -1.8692
-0.80843002 -0.63182998 -1.2837
0.44858 -0.47727001 -1.5788
-0.37457001 -0.30823001 -1.869
-0.81067997 -0.63002998 -1.2832
0.43375 -0.47727001 -1.5788
-0.38727999 -0.30838999 -1.8699
0.42717001 -0.47670999 -1.5769
-0.41874 -0.30831999 -1.8695
-0.85908002 -0.63050997 -1.2841001
0.39894 -0.47764 -1.58
-0.43765 -0.30823001 -1.869
-0.87996 -0.63012999 -1.2834001
0.37836999 -0.47580999 -1.5798
-0.44415 -0.30667999 -1.87
0.36666 -0.47727001 -1.5788
-0.45047 -0.30831999 -1.8695
-0.89920998 -0.63059998 -1.2843
0.35526001 -0.47575 -1.5796
-0.46963 -0.30834001 -1.8696001
0.34970999 -0.47755 -1.5797
-0.90872002 -0.63103998 -1.2788
0.34107 -0.47922 -1.5688
-0.4788 -0.30802 -1.8677
0.33515 -0.47564 -1.5793
-0.48840001 -0.308 -1.8676
-0.92694002 -0.63015997 -1.2834001
0.32091001 -0.4756 -1.5791
-0.49823001 -0.30647001 -1.8687
-0.9364 -0.63009 -1.2833
0.31801999 -0.47553 -1.5789
-0.94647002 -0.63600999 -1.2756
0.30752 -0.47955 -1.5698
-0.50762999 -0.30627999 -1.8676
0.30671 -0.47229999 -1.5798
-0.51374 -0.30772001 -1.8659
0.29855999 -0.47584999 -1.5799
-0.96995997 -0.63256001 -1.2786
0.28505999 -0.47946 -1.5696
0.28441 -0.47571 -1.5795
-0.97895002 -0.63027 -1.2837
0.27340001 -0.47753 -1.5797
-0.97837001 -0.63555998 -1.2747
0.27647999 -0.47918999 -1.5687
-0.99531001 -0.63011003 -1.2833
0.25953001 -0.47760001 -1.5799
0.90056002 -0.15819 -1.6303
-0.99302 -0.63252002 -1.2785
0.25439 -0.47766 -1.5693001
0.24525 -0.47545001 -1.5786
0.88275999 -0.15944 -1.6432
0.23977 -0.47552001 -1.5788
0.22882 -0.47394001 -1.5797
-0.78546 -0.35780999 -1.3476
0.21808 -0.47760999 -1.5799
0.19151001 -0.47927999 -1.569
0.18610001 -0.47929001 -1.569
0.17806999 -0.47942999 -1.5694
0.17688 -0.47397 -1.5798
-0.66150999 0.1098 -1.1766
-0.6864 -0.38956001 -1.3272001
0.16463 -0.47953999 -1.5698
-0.68807 -0.38958001 -1.3368
0.43358999 0.29113001 -1.4891
0.47830001 0.031987999 -1.1753
0.16881 -0.47578001 -1.5797
0.14580999 -0.47957 -1.5699
0.12965 -0.47784001 -1.5699
0.085321002 -0.47235 -1.58
0.54632998 -0.44150999 -1.5678999
-0.68862998 -0.11811 -1.1244
0.057861999 -0.47944 -1.5695
-0.69862998 -0.11933 -1.1252
0.049913999 -0.47779 -1.5698
0.021505 -0.47369 -1.5789
-0.72156 -0.11734 -1.1277
0.018339001 -0.47960001 -1.5700001
0.0024971999 -0.47775999 -1.5697
0.78657001 -0.64687002 -1.2782
-0.028956 -0.47957 -1.5699
0.23807999 0.28952 -1.4888999
-0.031486001 -0.48019001 -1.5719
0.74730003 -0.64297998 -1.28
-0.065652996 -0.47775 -1.5696
0.70897001 -0.64660001 -1.2776999
-0.10228 -0.47784001 -1.5700001
0.75901002 -0.089221999 -1.3989
0.25801 -0.64497 -1.2775
-0.55983001 -0.47519001 -1.5666
0.73638999 -0.080871999 -1.3989
0.23422 -0.64420998 -1.2792
-0.5776 -0.47260001 -1.5692
0.21251 -0.64126003 -1.2798001
-0.59807003 -0.47588 -1.5689
0.19909 -0.62080997 -1.3171999
-0.61751002 -0.4513 -1.6088001
-0.67941999 -0.41312 -1.3523999
-0.73954999 0.27454999 -1.4574
0.075773001 0.1058 -1.1698999
0.24800999 -0.3319 -1.8392
0.030289 -0.64998001 -1.26
-0.77608001 -0.47124001 -1.5482
0.029232999 -0.64056998 -1.2783999
-0.78965002 -0.47433999 -1.5638
0.47823 -0.43472999 -1.574
0.017990001 -0.64234 -1.2787
-0.79268003 -0.47731999 -1.5626
-0.37542999 0.31342 -1.5292
0.43935999 0.14329 -1.2385
-0.64816999 -0.45183 -1.6107
-0.18010999 -0.60887003 -1.3297
-0.70249999 -0.4174 -1.3664
-0.71692997 -0.38791001 -1.2699
0.10551 -0.62357002 -1.3096
-0.70875001 -0.45899999 -1.5991
-0.76082999 -0.41088 -1.345
-0.11269 -0.64376003 -1.2690001
-0.92479002 -0.47143999 -1.5595
-0.045547999 0.1594 -1.2659
-0.83371001 -0.42658001 -1.3965
-0.74807 -0.37237 -1.2234
-0.94915998 -0.46154001 -1.5384001
0.26391 -0.31806999 -1.8581001
-0.17990001 -0.64151001 -1.2706
-0.98903 -0.47409001 -1.5683
-0.18446 0.12174 -1.1993001
-0.011371 -0.31018001 -1.8684
0.79794002 -0.48028001 -1.5779001
-0.71991998 -0.63700998 -1.2745
0.53828001 -0.47878 -1.5673
0.37421 0.32907999 -1.5581
0.10788 -0.44080999 -1.6404999
0.39995 -0.42715999 -1.3933001
0.22157 -0.49283999 -1.5519
-0.58990997 -0.32339001 -1.8441
-0.79702997 -0.63028002 -1.2672
0.4544 -0.47628 -1.5535001
-0.98907 -0.63212001 -1.2776999
0.26293001 -0.47955 -1.5699
0.89064997 -0.15379 -1.6385
0.24347 -0.47938001 -1.5693001
0.20517001 -0.47939 -1.5693001
0.15383001 -0.47948 -1.5696
0.13242 -0.47960001 -1.5700001
0.092331998 -0.47946 -1.5696
-0.67997998 -0.11865 -1.1295
-0.7845 -0.38674 -1.3271
0.063093998 -0.47769001 -1.5695
-0.70934999 -0.11913 -1.1233
0.70788997 -0.069697 -1.399
0.45030999 -0.34143001 -1.3343
0.031420998 -0.47621 -1.5699
-0.71877003 -0.11951 -1.1269
0.023492999 -0.47760001 -1.5692
0.80012 -0.64581001 -1.2792
-0.0028603 -0.47885999 -1.5676
0.40202001 -0.34975001 -1.3386
0.79729998 -0.64736998 -1.2792
-0.010643 -0.47771001 -1.5695
0.77981001 -0.64425999 -1.2793
-0.036848001 -0.47779 -1.5698
0.76914001 -0.64498001 -1.2775
-0.049961001 -0.47762999 -1.5693001
0.75735998 -0.64827001 -1.2779
-0.057806998 -0.4777 -1.5695
0.73728001 -0.64398998 -1.2787
-0.078745 -0.47602999 -1.5694
0.72503 -0.64432001 -1.2794
-0.089203 -0.47755 -1.569
0.71837997 -0.64409 -1.2789
-0.099661998 -0.47784999 -1.5700001
0.69784999 -0.64758998 -1.2796
-0.11013 -0.47942001 -1.5694
0.68968999 -0.64736998 -1.2761
-0.12321 -0.47778001 -1.5697
0.88265997 -0.10971 -1.6413
0.67808998 -0.64415997 -1.2790999
-0.1389 -0.47768 -1.5694
-0.93958002 -0.42805001 -1.5741
0.87314999 -0.10816 -1.6440001
0.66825998 -0.64366001 -1.2781
-0.14670999 -0.47731999 -1.5682
0.65846997 -0.64441001 -1.2764
-0.15978 -0.47876 -1.5673
0.64521003 -0.64578998 -1.2790999
-0.16766 -0.47894999 -1.5678999
0.63371998 -0.64737999 -1.2792
-0.17555 -0.47604001 -1.5694
0.62998998 -0.648 -1.2774
-0.18867999 -0.47760999 -1.5692
0.61853999 -0.64456999 -1.2799
-0.19129001 -0.47606999 -1.5695
0.60889 -0.64516002 -1.2779
-0.20974 -0.47937 -1.5693001
-0.67953002 -0.051584002 -1.1497999
0.59797001 -0.64450002 -1.2797
-0.21496999 -0.47925001 -1.5689
0.58745003 -0.64295 -1.2767
-0.22551 -0.47620001 -1.5699
0.57752001 -0.64679998 -1.2781
-0.23605999 -0.47622001 -1.5700001
0.56620997 -0.64438999 -1.2795
-0.24913999 -0.47437999 -1.5692
0.55988002 -0.64253002 -1.2790999
-0.25968999 -0.47731999 -1.5682
0.54863 -0.64257002 -1.2790999
-0.26242 -0.47602999 -1.5694
0.53965002 -0.64336002 -1.2775
-0.27833 -0.47608 -1.5695
0.52933002 -0.64283001 -1.2797
-0.2863 -0.47758001 -1.5691
-0.75641 -0.059269 -1.1443
0.51902002 -0.64614999 -1.2798001
-0.29962999 -0.47766 -1.5693001
0.50743997 -0.64433998 -1.2794
-0.30761999 -0.47613999 -1.5697
0.49900001 -0.64283001 -1.2797
-0.31821999 -0.47451001 -1.5697
0.48750001 -0.64222997 -1.2785
-0.32359001 -0.47457001 -1.5699
0.47462001 -0.64284998 -1.2797
-0.33697 -0.47455001 -1.5698
0.4689 -0.64251 -1.279
-0.34775001 -0.47918999 -1.5687
-0.72671998 -0.29876 -1.3451
0.45831001 -0.64392 -1.2786
-0.35837999 -0.47277999 -1.5698
0.44773 -0.64270002 -1.2794
-0.36917999 -0.47442999 -1.5694
0.43944001 -0.64102 -1.2793
-0.38 -0.47591001 -1.569
0.42890999 -0.64102 -1.2793
-0.38802999 -0.47576001 -1.5685
0.41879001 -0.64270002 -1.2794
-0.39625999 -0.47588 -1.5689
-0.88291001 -0.54039001 -1.2912
0.40867999 -0.64433998 -1.2794
-0.40992999 -0.47595999 -1.5691
0.39300999 -0.64287001 -1.2797
-0.41817999 -0.47457001 -1.5699
0.3897 -0.64200002 -1.278
-0.42885 -0.47419 -1.5686001
0.37740001 -0.64131999 -1.2799
-0.43996 -0.47733 -1.5683
0.36928001 -0.64332998 -1.2774
-0.44802001 -0.47558999 -1.5678999
0.35960999 -0.64134002 -1.2799
-0.45892999 -0.47692999 -1.5669
0.34961 -0.64278001 -1.2796
-0.46772 -0.47600001 -1.5693001
0.33480999 -0.64444 -1.2796
-0.47891 -0.47461 -1.5700001
0.32936001 -0.64253998 -1.2790999
-0.48986 -0.47439 -1.5693001
0.31942999 -0.64129001 -1.2798001
-0.49822 -0.47433999 -1.5691
0.30471 -0.64409 -1.2789
-0.50396001 -0.47448999 -1.5696
0.29736999 -0.64287001 -1.2797
-0.51756001 -0.47547999 -1.5676
0.28975001 -0.64121002 -1.2797
-0.52938002 -0.47454 -1.5698
0.27765 -0.64270002 -1.2794
-0.53777999 -0.47442999 -1.5694
0.26782 -0.64385998 -1.2785
-0.54619002 -0.47103 -1.5700001
0.74962002 -0.086421996 -1.3994
0.24597999 -0.64117002 -1.2796
-0.56945997 -0.47613999 -1.5697
0.22946 -0.64298999 -1.28
-0.58960003 -0.47461 -1.5700001
0.20778 -0.64130998 -1.2799
-0.60687 -0.47284999 -1.5700001
-0.95805001 -0.33818001 -1.5979
0.13044 -0.64288998 -1.2798001
-0.67745 -0.47558001 -1.5678999
0.12802 -0.64262003 -1.2792
-0.68972999 -0.47575 -1.5684
0.11884 -0.64287001 -1.2797
-0.69905001 -0.47591999 -1.569
0.10261 -0.64139003 -1.28
-0.70801002 -0.47433001 -1.5691
0.097654998 -0.64037001 -1.278
-0.71698999 -0.47420001 -1.5686001
0.081776001 -0.64094001 -1.2790999
-0.72975999 -0.47600999 -1.5693001
0.077008002 -0.64033002 -1.2779
-0.73878002 -0.47275001 -1.5697
0.067890003 -0.64042002 -1.2781
-0.7482 -0.47444999 -1.5695
0.054281998 -0.64071 -1.2787
-0.75985998 -0.47689 -1.5668
0.040679 -0.64095002 -1.2790999
-0.76972997 -0.47261 -1.5692
0.47347999 -0.43667001 -1.5687
0.01057 -0.64402002 -1.2696
-0.79400998 -0.47617 -1.5588
-0.63107002 -0.58947003 -1.3545001
0.61686999 -0.42019001 -1.6487
-0.73724997 0.3265 -1.5459
0.077522002 0.15738 -1.2599
-0.71000999 -0.42519 -1.3868999
-0.94891 -0.66959 -1.2084
-0.69625002 -0.38935 -1.27
-0.074578002 -0.64011002 -1.2775
-0.88832003 -0.47027001 -1.5675
-0.0858 -0.64191997 -1.2778
0.35238001 -0.31896001 -1.8527
-0.89849001 -0.47509 -1.5663
0.34424999 -0.31661999 -1.8594
-0.094792999 -0.64020002 -1.2776
-0.90965003 -0.47418001 -1.5686001
0.33792001 -0.31671 -1.8599
-0.10378 -0.64019001 -1.2776
-0.91987997 -0.47420999 -1.5687
-0.90338999 -0.46628001 -1.5209
-0.68123001 -0.063008003 -1.1087
0.54510999 -0.39759001 -1.5407
-0.14853001 -0.64424002 -1.27
-0.95863998 -0.47729999 -1.5568
-0.93052 -0.45971999 -1.4995
-0.68637002 -0.45984 -1.3104
-0.16653 -0.64104003 -1.2729
0.27691001 -0.31830001 -1.8594
-0.97864002 -0.47257 -1.5691
-0.0025655001 0.2272 -1.3799
-0.75686002 -0.61996001 -1.1961
0.49623999 -0.45684999 -1.4848
-0.71945 -0.18086 -1.1598001
0.44277 -0.41666999 -1.364
0.43336001 -0.41835999 -1.3597
-0.31941 -0.28749001 -1.9057
-0.75206 -0.61003 -1.3218
0.4905 -0.45396 -1.6183
0.43976 -0.41779 -1.3627
-0.32876 -0.28731 -1.9045
0.48745999 -0.45559999 -1.6179
0.42851001 -0.41863 -1.3606
-0.78274 -0.61014998 -1.3256
0.46959001 -0.45596001 -1.6192
0.40345001 -0.41848001 -1.3699
0.38874999 0.32938999 -1.5596
0.11073 -0.44097 -1.6411
0.40136001 -0.42278001 -1.3986
0.63202 -0.64735001 -1.27
-0.17253 -0.47999001 -1.5599999
-0.65248001 -0.059606999 -1.1303
0.61466002 -0.64894003 -1.2697999
-0.19859 -0.47983 -1.5595
0.58780998 -0.64964998 -1.268
-0.22474 -0.47983 -1.5595
0.046371002 0.28461999 -1.4794
-0.22761001 -0.48063999 -1.5621001
0.022360999 0.28468001 -1.4797
-0.24853 -0.48036 -1.5612
0.53968 -0.64701998 -1.2694
-0.27737001 -0.47999999 -1.5599999
0.50629002 -0.64942998 -1.2675
-0.3091 -0.47995999 -1.5599
0.49831 -0.64697999 -1.2693
-0.31169999 -0.47984999 -1.5595
-0.066073999 0.28465 -1.4796
-0.33065999 -0.48050001 -1.5616
0.46833 -0.64929998 -1.2673
-0.34349999 -0.47959 -1.5587
-0.085129999 0.28470999 -1.4799
-0.35786 -0.48126 -1.5641
0.44501001 -0.64861 -1.2692
-0.36515 -0.47999001 -1.5599999
0.43937001 -0.64819998 -1.2684
-0.37832999 -0.47957 -1.5585999
-0.11845 0.28431001 -1.4778
0.42028999 -0.65029001 -1.2725
-0.38409001 -0.48014 -1.5605
0.42664999 -0.64728999 -1.2699
-0.38929 -0.47826999 -1.5599999
-0.12560999 0.28446999 -1.4787
-0.39488 -0.48012 -1.5604
0.41655999 -0.64901 -1.27
-0.39748999 -0.47997001 -1.5599
-0.88283002 -0.55265999 -1.2912
-0.40952 -0.48006001 -1.5658
0.39535999 -0.64839 -1.2687
-0.41370001 -0.47988001 -1.5596
-0.89696002 -0.55764002 -1.2922
-0.41973999 -0.48069999 -1.5623
-0.42473 -0.48008001 -1.5603
0.38534001 -0.64866 -1.2693
-0.42993 -0.47815999 -1.5597
0.37757 -0.64718997 -1.2697001
-0.43274999 -0.47986001 -1.5595
-0.43862 -0.48036999 -1.5612
-0.44145 -0.48047999 -1.5616
0.36500001 -0.64998001 -1.2686
-0.44879001 -0.47937 -1.558
0.34988999 -0.64736003 -1.27
-0.4684 -0.47979 -1.5592999
0.33739001 -0.64872003 -1.2694
-0.47927999 -0.47957999 -1.5587
0.3294 -0.64802003 -1.268
-0.48497999 -0.47975999 -1.5592
-0.21618 0.28411001 -1.4768
-0.48809001 -0.48012999 -1.5604
0.31696999 -0.64927 -1.2672
-0.49614999 -0.47821999 -1.5599
-0.22368 0.28621 -1.4798
-0.49926999 -0.48017001 -1.5605
-0.23331 0.28622001 -1.4799
-0.50472999 -0.48003 -1.5601
0.30741 -0.64705998 -1.2694
-0.50993001 -0.47961 -1.5587
0.29980001 -0.64547998 -1.2694
-0.51854002 -0.47982001 -1.5594
0.28578001 -0.64903003 -1.27
-0.52688003 -0.47973001 -1.5591
0.27568999 -0.64849001 -1.2689
-0.53811997 -0.47968 -1.559
0.75558001 -0.080335997 -1.3897001
0.25641999 -0.64727002 -1.2697999
-0.55804998 -0.47817001 -1.5597
-0.29833999 0.28437999 -1.4782
-0.56445003 -0.4804 -1.5613
0.74621999 -0.080352999 -1.39
0.24666999 -0.64839 -1.2687
-0.56964999 -0.47990999 -1.5597
-0.30340001 0.28461999 -1.4794
-0.57577002 -0.48027 -1.5609
0.23943999 -0.64832002 -1.2686
-0.57805997 -0.47973999 -1.5592
0.22999001 -0.64850003 -1.2690001
-0.58969998 -0.47828001 -1.5599999
0.21559 -0.64955997 -1.2678
-0.59780997 -0.47780001 -1.5585001
0.2084 -0.64677 -1.2689
-0.60982001 -0.47972 -1.5591
0.16841 -0.64538997 -1.2692
0.41499001 -0.36691999 -1.3285
-0.64762998 -0.4795 -1.5584
0.15216 -0.64671999 -1.2688
0.40775999 -0.36579999 -1.3296
-0.65942001 -0.47946 -1.5582
-0.62847 0.27886999 -1.4649
0.18587001 0.10882 -1.1783
0.35666999 -0.33039999 -1.8422
0.14992 -0.64568001 -1.2697999
-0.66864002 -0.47968999 -1.559
0.13388 -0.64735001 -1.27
-0.67751998 -0.47962001 -1.5588
0.12921999 -0.64726001 -1.2697999
-0.68975002 -0.47977999 -1.5592999
0.11769 -0.64858001 -1.2691
-0.69866002 -0.47968 -1.559
0.10841 -0.64578003 -1.27
-0.70797002 -0.47984001 -1.5595
-0.44983 0.28601 -1.4788001
0.36745 0.11594 -1.1896
-0.71430999 -0.48003 -1.5601
0.099297002 -0.64854002 -1.2690001
-0.71990001 -0.4765 -1.5599
0.087664999 -0.64793998 -1.2679
-0.72886002 -0.47951001 -1.5584
-0.70691001 0.27917001 -1.4664
0.10178 0.10891 -1.1793
0.2798 -0.33021 -1.8411
0.065141998 -0.64886999 -1.2697001
-0.74721003 -0.47784999 -1.5585999
-0.71757001 0.27888 -1.4649
0.094137996 0.10885 -1.1787
0.26710001 -0.33015001 -1.8408
0.051344 -0.64692003 -1.2692
-0.75920999 -0.47915 -1.5573
-0.72804999 0.27452999 -1.4574
0.082978003 0.10444 -1.1688
-0.99633002 -0.49066001 -1.5451
0.25082001 -0.33162001 -1.8377
0.043639999 -0.64703 -1.2599
-0.76112002 -0.47632 -1.5481
-0.18528 -0.66035002 -1.239
-0.99830002 -0.49708 -1.5282
0.25979 -0.33954 -1.8188
-0.76138002 -0.47048 -1.5290999
0.037907001 -0.64893001 -1.2697999
-0.77767003 -0.47738001 -1.5571001
0.0079905 0.15919 -1.2642
-0.78781998 -0.42894 -1.3990999
-0.6074 -0.34182 -1.8112
-0.79690999 -0.39971 -1.2991
0.34762999 0.43656999 -1.7361
-0.098815002 0.10004 -1.1598001
0.88779998 -0.50243002 -1.5389
0.071277998 -0.33381 -1.8286
-0.94354999 -0.47295001 -1.5371
-0.68853998 -0.45950001 -1.3095
-0.16866 -0.64502001 -1.2685
-0.97718 -0.47944 -1.5582
-0.20912001 -0.64385003 -1.2692
-1.0197001 -0.47942001 -1.5581
-0.27922001 -0.64095002 -1.2695
-1.0854 -0.47767001 -1.5581
-0.32786 -0.28977001 -1.8971
-0.76850998 -0.61069 -1.3198
0.48159 -0.45860001 -1.6093
0.42550999 -0.41835001 -1.3597
0.41508001 -0.41971001 -1.3591
-0.78593999 -0.61467999 -1.3178999
0.46612999 -0.45504999 -1.6097
0.40987 -0.4183 -1.3595001
0.19776 0.28298 -1.4787
0.73006999 -0.65095001 -1.2738
-0.070937 -0.48008001 -1.5659
0.18803 0.28463 -1.4795001
-0.089212999 -0.48173001 -1.5656
0.17076001 0.28472 -1.4799
-0.099661998 -0.48260999 -1.5685
-0.94514 -0.43055999 -1.5773
0.11423 0.28467 -1.4797
-0.15968999 -0.48133999 -1.5644
0.10694 0.28468999 -1.4798
0.64595997 -0.65029001 -1.2725
-0.16500001 -0.48187 -1.5661
0.089295998 0.28237 -1.4756
0.62480003 -0.65002 -1.2719001
-0.18844 -0.48120001 -1.5639
0.058386002 0.28455999 -1.4791
-0.67979002 -0.068403997 -1.1453
-0.2122 -0.48030999 -1.5667
0.03198 0.28470001 -1.4799
-0.23868001 -0.48082 -1.5683
0.010368 0.28468001 -1.4797
-0.25937 -0.48120001 -1.5639
0.0032210001 0.28625 -1.48
-0.26967999 -0.48216 -1.5614001
-0.0064456002 0.28453001 -1.4789
-0.27513 -0.48256001 -1.5627
-0.011145 0.28624001 -1.4799
-0.28852999 -0.48137 -1.5645
-0.027983001 0.28439 -1.4782
-0.29126999 -0.48155999 -1.5651
-0.049543999 0.28235 -1.4755
-0.31255999 -0.48001 -1.5657001
-0.056547999 0.28459999 -1.4793
-0.80860001 -0.5535 -1.2969
-0.32835999 -0.48120001 -1.5639
-0.078011997 0.28432 -1.4778
-0.34937 -0.48050001 -1.5616
-0.092280999 0.28453001 -1.4789
-0.36847001 -0.48100001 -1.5633
-0.10895 0.28452 -1.4789
-0.37963 -0.48001 -1.5657001
0.40316001 -0.64714998 -1.2696
-0.40549001 -0.47979 -1.5592999
-0.45537999 -0.48231 -1.5619
0.35984999 -0.64721 -1.2697001
-0.45752001 -0.47997001 -1.5599
0.76267999 -0.089735001 -1.3854001
0.26842001 -0.64715999 -1.2696
-0.54677999 -0.47826001 -1.5599999
-0.28867999 0.28444999 -1.4785
-0.55865002 -0.48030999 -1.561
-0.4298 0.28619 -1.4797
0.38911 0.11584 -1.1885999
-0.69643998 -0.48027 -1.5609
0.04228 -0.64826 -1.2685
-0.76302999 -0.47804001 -1.5592
-0.42985001 0.059980001 -1.0855
-0.73528999 -0.45706001 -1.4801
0.024172001 -0.64683998 -1.2690001
-0.78838998 -0.47819999 -1.5598
0.060842 0.37101001 -1.6282001
-0.37478 0.042192001 -1.0497
0.60966003 -0.56436998 -1.4276
-0.20480999 -0.39467001 -1.7198
-0.74054998 -0.44725001 -1.4483
-0.028438 0.10803 -1.1698
0.14782999 -0.3308 -1.8331
-0.068089999 -0.64998001 -1.26
-0.87287003 -0.47635001 -1.5481
-0.063481003 -0.64406002 -1.2696
-0.87918001 -0.47803 -1.5536
-0.076903 -0.64541 -1.2692
-0.88858002 -0.47955999 -1.5585999
-0.081390001 -0.64498001 -1.2684
-0.89517999 -0.47951999 -1.5585001
-0.058848999 0.10995 -1.1783
0.11814 -0.33008 -1.8404
-0.099275 -0.64257997 -1.2697001
-0.90535003 -0.47641999 -1.5596
-0.10822 -0.64624 -1.2678
-0.91766 -0.47894001 -1.5566
-0.073596001 0.1058 -1.17
0.092786998 -0.33431 -1.8314
-0.11707 -0.64837003 -1.2599
-0.92040998 -0.47839001 -1.5492001
-0.75255001 -0.37827 -1.2249
-0.61965001 0.059854001 -1.0832
-0.92694002 -0.45928001 -1.4873
-0.67988998 -0.45368001 -1.3099999
-0.15752 -0.64573997 -1.2699
-0.96741998 -0.47490999 -1.5546
-0.17990001 -0.64273 -1.27
-0.69809002 -0.45872 -1.3072
-0.98752999 -0.47617999 -1.5588
-0.18661 -0.64252001 -1.2696
-0.70985001 -0.4594 -1.3092
-0.99892998 -0.47814 -1.5596
-0.19778 -0.64214998 -1.2689
-0.71942002 -0.45197001 -1.3091
-1.0099 -0.47983 -1.5595
-0.21816 -0.64515001 -1.2687
-1.0239 -0.47810999 -1.5595
-0.22486 -0.64241999 -1.2694
-1.0375 -0.47927001 -1.5576
-0.24966 -0.64087999 -1.2694
-1.059 -0.47749001 -1.5575
-0.26791 -0.64363998 -1.2688
-1.0775 -0.47746 -1.5574
-0.28830001 -0.64081001 -1.2693
-1.0976 -0.47652 -1.5599
-0.29993999 -0.64258999 -1.2697999
-1.1082 -0.47619 -1.5588
-0.30904001 -0.64117002 -1.27
-1.1129 -0.47964001 -1.5532
-0.72103 -0.12174 -1.1264
0.28266999 0.28231999 -1.4753
0.010272 -0.48049 -1.5671999
0.27555001 0.28268999 -1.4772
0.0050448002 -0.48058999 -1.5676
0.15573999 -0.63954997 -1.2796
0.40097001 -0.35870999 -1.34
0.25812 0.28298 -1.4788001
0.79501998 -0.65092999 -1.2737
-0.018541999 -0.48072001 -1.568
0.24834999 0.28472 -1.4799
0.78711998 -0.65008998 -1.2721
-0.021206999 -0.48045999 -1.5671999
0.23571999 0.28472 -1.48
-0.031617001 -0.48089999 -1.5686001
0.22288001 0.28307 -1.4792
0.76691002 -0.65104997 -1.2707
-0.044732001 -0.48076001 -1.5681
0.21811 0.28474 -1.48
0.75405002 -0.65232998 -1.2702
-0.057833001 -0.48216999 -1.5671
0.20532 0.28450999 -1.4788001
-0.065695003 -0.48034 -1.5668
0.16799 0.28443 -1.4784
0.70962 -0.65236998 -1.2703
-0.10488 -0.48043001 -1.5671
0.46933001 -0.12995 -1.3845
0.14346001 0.28452 -1.4789
-0.12842 -0.48063999 -1.5677
0.13869999 0.28468001 -1.4797
0.88375002 -0.1115 -1.6429
0.67000002 -0.65021002 -1.2723
-0.13102999 -0.48062 -1.5677
0.12153 0.28464001 -1.4796
0.87795001 -0.11661 -1.6451
0.66948998 -0.65113002 -1.2709
-0.14670999 -0.48049 -1.5671999
0.099642999 0.28470001 -1.4798
0.63947999 -0.6512 -1.271
-0.17268001 -0.48409 -1.5619
0.075166002 0.28290999 -1.4784
0.61982 -0.65075999 -1.2733999
-0.19886 -0.4826 -1.5628
-0.039840002 0.28468001 -1.4797
-0.30720001 -0.48473999 -1.564
-0.74918997 0.27491999 -1.4594001
0.066441998 0.10575 -1.1694
0.23537999 -0.33179 -1.8387001
0.023513 -0.64982003 -1.2596999
-0.78675997 -0.47832999 -1.549
-0.060981002 0.10453 -1.1698
0.91593999 -0.50002998 -1.5425
-0.85086 -0.47832999 -1.2964
0.10814 -0.33081999 -1.8333
-0.10817 -0.64841998 -1.26
-0.91798002 -0.47870001 -1.5445
-0.79601997 0.070836 -1.1762
-0.81485999 -0.41161999 -1.3281
-0.10964 0.10689 -1.1691
0.87105 -0.50002003 -1.5425
0.066036999 -0.33162001 -1.8377
-0.14598 -0.64693999 -1.2596999
-0.95978999 -0.47126001 -1.5483
-0.11864 0.10572 -1.1691
0.86791998 -0.50028002 -1.5433
0.050717998 -0.33133 -1.8361
-0.15937001 -0.64942998 -1.2589
-0.96489 -0.47997001 -1.5486
0.72921002 -0.024968 -1.4093
0.47035 -0.30087 -1.3482
-0.79676998 -0.34986001 -1.3336999
0.51014 -0.34704 -1.5926
0.44940001 -0.43022999 -1.383
0.47852001 -0.59375 -1.3681999
-0.33739999 -0.42625001 -1.6589
0.39941001 -0.43020999 -1.3982
-0.50929999 -0.31270999 -1.8599
0.30489999 -0.48135 -1.5700001
-0.54395002 -0.31215 -1.8565
0.26030999 -0.48133001 -1.5700001
0.21624 -0.48120999 -1.5696
0.43200999 0.28453001 -1.479
0.16725001 -0.48098999 -1.5689
0.36734 0.28455001 -1.4791
0.097563997 -0.48243999 -1.5678999
-0.71757001 -0.12424 -1.1283
0.19069 -0.63902003 -1.2785
0.44303 -0.35766 -1.331
0.29170999 0.28321001 -1.4799
0.020956 -0.48113 -1.5693001
0.26603001 0.28463 -1.4795001
-0.0029231 -0.48016 -1.5662
-0.90842998 -0.43718001 -1.5705
0.15298 0.28274 -1.4775
-0.11791 -0.48431 -1.5626
0.065645002 0.28459001 -1.4793
-0.66100001 -0.068630002 -1.1490999
-0.20965999 -0.48065999 -1.5678
0.32877001 -0.65199 -1.2639
-0.48783001 -0.48304999 -1.5585001
-0.98909003 -0.34951001 -1.5887001
0.40246001 0.11007 -1.1795
0.13522001 -0.65350002 -1.2608
-0.67975003 -0.48063001 -1.5563999
-0.17194 -0.66288 -1.2364
-0.98750001 -0.49542001 -1.5283
0.26277 -0.33941999 -1.8182
-0.75251001 -0.47542 -1.5283
0.083214998 0.1012 -1.1599
-0.99940002 -0.49028999 -1.5383
0.25244001 -0.33399999 -1.8297
-0.76049 -0.47663 -1.5322
-0.51635998 0.28130001 -1.47
0.29708999 0.11011 -1.1799999
-0.78495002 -0.48118001 -1.5582
0.61799002 -0.56581998 -1.4188
-0.19858 -0.39958999 -1.7098
-0.73266 -0.44707999 -1.4372
-0.74717999 -0.41179001 -1.3286
-0.48794001 0.17009 -1.2790999
-0.75387001 -0.59030002 -1.3602
0.49713999 -0.43178999 -1.6593
-0.83322001 -0.43346 -1.3934
-0.097032003 0.1044 -1.1684
0.077976003 -0.33123001 -1.8356
-0.13485999 -0.64941001 -1.2589
-0.94954997 -0.47918999 -1.5461
0.33721 0.43548 -1.7318
-0.10952 0.10003 -1.1597
0.87768 -0.50116003 -1.535
0.065190002 -0.33194 -1.8285
-0.14564 -0.6487 -1.2487
-0.95473999 -0.47817999 -1.5372
0.14409 0.27835 -1.4696
0.89051998 -0.12876999 -1.6348
-0.93983001 -0.63751 -1.2691
-0.68597001 -0.35457999 -1.3246
-0.10619 -0.31459001 -1.8595999
0.70985001 -0.48249999 -1.5681
-0.11836 -0.31457001 -1.8595001
0.69395 -0.48299 -1.5697
-0.16708 -0.31654 -1.8589
0.64771998 -0.48460999 -1.5693001
-0.17625999 -0.31663999 -1.8595001
0.63459998 -0.48293999 -1.5696
-0.19137 -0.31781 -1.8565
0.61194003 -0.48129001 -1.5698
-0.66464001 -0.64002001 -1.2709
-0.22819 -0.31459999 -1.8597
0.58939999 -0.48271999 -1.5688
-0.24966 -0.31665999 -1.8595999
0.56778997 -0.48300001 -1.5698
-0.25870001 -0.31636 -1.8578
0.55833 -0.48293999 -1.5696
0.41431001 -0.45212001 -1.4481
-0.35764 -0.31452999 -1.8593
0.45736 -0.48096001 -1.5688
-0.36996001 -0.31639999 -1.8581001
0.4429 -0.48124999 -1.5697
-0.40763 -0.31265 -1.8595001
0.40493 -0.48299 -1.5697
-0.43917 -0.31455001 -1.8594
0.37595999 -0.48297 -1.5697
-0.44869 -0.31457001 -1.8595001
0.3646 -0.48468 -1.5695
-0.21153 -0.037492 -1.9119999
-0.46733999 -0.31628001 -1.8573999
0.34715 -0.48120001 -1.5696
-0.47731 -0.31459001 -1.8597
0.33873999 -0.48131999 -1.5699
-0.48361999 -0.31266001 -1.8595999
0.32743999 -0.48453999 -1.5691
-0.51889998 -0.31454 -1.8593
0.29366001 -0.48131001 -1.5699
-0.52802002 -0.31617999 -1.8568
0.28531 -0.48133001 -1.5700001
-0.53507 -0.31268999 -1.8598
0.27958 -0.48115 -1.5694
0.42927 -0.65114999 -1.2679
-0.38909999 -0.48113999 -1.5581
0.39983001 -0.6512 -1.2654001
-0.41911 -0.48304999 -1.5585001
0.35916999 -0.65020001 -1.2661
-0.45208001 -0.48164001 -1.5597
0.31055999 -0.65188998 -1.2694
-0.49068999 -0.48313001 -1.5588
0.25167 -0.65123999 -1.2681
-0.55975997 -0.48348001 -1.5542001
0.24839 -0.65083998 -1.2647001
-0.56905001 -0.48094001 -1.5574
0.38268 0.11011 -1.1799001
0.11893 -0.65052998 -1.261
-0.69606 -0.48157999 -1.5595
0.36300999 0.11012 -1.1799999
0.096459001 -0.65047997 -1.2640001
-0.7173 -0.48157001 -1.5594
0.34788001 0.11012 -1.1799999
0.071208999 -0.65104002 -1.262
-0.73742998 -0.48227 -1.556
0.33282 0.1101 -1.1798
0.066492997 -0.65039003 -1.2608
-0.74980998 -0.48229 -1.5561
0.31382 0.11011 -1.1799999
0.04854 -0.65092999 -1.2618001
-0.76139998 -0.48012999 -1.5548
-0.73777002 -0.46524 -1.4902
0.30544001 0.11133 -1.1799001
-0.77767003 -0.48216 -1.5556
0.027964 -0.65204 -1.258
-0.78117001 -0.48357001 -1.5489
-0.19637001 -0.66043001 -1.2392
-1.0091 -0.49566001 -1.529
0.24448 -0.33974001 -1.8199
-0.77450001 -0.47530001 -1.5224
0.37882 0.43673 -1.7367001
-0.066712998 0.1 -1.1593
0.91738999 -0.50050998 -1.5388
0.10467 -0.33208999 -1.8293999
-0.91505998 -0.47874999 -1.539
-0.90803999 -0.46094999 -1.4765
0.45741001 -0.56756002 -1.419
-0.3583 -0.39768001 -1.7094001
-0.89758998 -0.44898 -1.4381
-0.45354 -0.64209998 -1.275
-0.014994 -0.31758001 -1.8552001
0.79960001 -0.48723 -1.5662
-0.020938 -0.31650001 -1.8587
0.78969997 -0.48596999 -1.5678999
0.40560001 -0.30458999 -1.3459001
-0.030029001 -0.31672999 -1.86
0.77932 -0.48605999 -1.5682
-0.48629001 -0.64016002 -1.2711
-0.048330002 -0.31665999 -1.8595999
0.76945001 -0.48638999 -1.5693001
-0.49612001 -0.64020997 -1.2711999
-0.051401 -0.31448999 -1.8591
0.75812 -0.48269999 -1.5688
-0.066598997 -0.31672999 -1.86
0.74469 -0.48449999 -1.5689
-0.51582998 -0.64021999 -1.2711999
-0.078791 -0.31457001 -1.8595999
0.73799002 -0.48458999 -1.5692
-0.52316999 -0.64007002 -1.271
-0.084891997 -0.31626001 -1.8573
0.72984999 -0.48552999 -1.5664999
-0.097053997 -0.31643999 -1.8583
0.71960002 -0.48550001 -1.5664001
-0.12751 -0.31672999 -1.86
0.68730998 -0.48460999 -1.5693001
-0.13966 -0.31652001 -1.8588001
0.67976999 -0.48251 -1.5682
-0.58907998 -0.64043999 -1.2717
-0.14575 -0.31448001 -1.859
0.66964 -0.48399001 -1.5673
-0.59131998 -0.64006001 -1.2709
-0.15795 -0.31659999 -1.8592
0.65736002 -0.48449999 -1.569
-0.18832999 -0.31784001 -1.8566999
0.62805003 -0.4813 -1.5699
-0.20973 -0.31432 -1.858
0.60890001 -0.48297 -1.5697
-0.65935999 -0.64135998 -1.2703
-0.21899 -0.31268001 -1.8597
0.59588999 -0.48280999 -1.5691
-0.23732001 -0.31650001 -1.8587
0.57990003 -0.48111001 -1.5693001
-0.26802 -0.31654999 -1.8589
0.54587001 -0.48291999 -1.5695
-0.27410001 -0.31255999 -1.859
0.53946 -0.48277 -1.569
-0.74874997 -0.63657999 -1.2282
0.50651002 -0.47387001 -1.5124
-0.053316999 0.34316999 -1.5786
0.48401999 -0.59079999 -1.3764
-0.32743999 -0.42166999 -1.6689
0.40130001 -0.43665999 -1.4089
-1.0793999 -0.52582002 -1.4752001
0.17863999 -0.36719999 -1.7697001
0.42682999 -0.4659 -1.487
-0.35328001 -0.31851 -1.85
0.45423999 -0.48326999 -1.5592
-0.37940001 -0.31648999 -1.8586
0.43961 -0.48416001 -1.5678999
-0.38852999 -0.31623 -1.8571
0.42748001 -0.48385999 -1.5669
-0.39207 -0.31463 -1.8599
0.41931 -0.48278999 -1.5691
-0.41692999 -0.31439999 -1.8585
0.39906001 -0.48135 -1.5700001
-0.42965999 -0.31450999 -1.8592
0.38995999 -0.48416999 -1.5678999
-0.49948999 -0.31445 -1.8588001
0.31327999 -0.48288 -1.5694
-0.67751998 -0.067930996 -1.1374
0.59641999 -0.65081 -1.2673
-0.21182001 -0.48526001 -1.5599
-0.74817002 -0.064303003 -1.1315
0.52763999 -0.65476 -1.2632999
-0.28516999 -0.48131001 -1.5585999
0.50853002 -0.65123999 -1.2654001
-0.30362999 -0.48280001 -1.5577
0.49746001 -0.65108001 -1.2651
-0.31979001 -0.48168001 -1.5598
0.48949999 -0.65017003 -1.266
-0.32499999 -0.48144999 -1.5591
0.47747999 -0.65165001 -1.2689
-0.33522999 -0.48230001 -1.5561
0.46689001 -0.65057999 -1.2697999
-0.34869999 -0.48254001 -1.5569
0.45960999 -0.65698999 -1.2615
-0.35978001 -0.48155999 -1.5594
0.44462001 -0.65069997 -1.2671
-0.36774999 -0.48304999 -1.5585001
-0.12778001 0.28275999 -1.4698
0.41806 -0.65135002 -1.2657
-0.39989001 -0.48111001 -1.558
0.36982 -0.65197003 -1.2668
-0.44925001 -0.48153001 -1.5592999
0.34858 -0.65315002 -1.2628
-0.46814999 -0.48109001 -1.5579
0.33643001 -0.65103 -1.265
-0.47903001 -0.48087999 -1.5572
0.29921001 -0.65077001 -1.2645
-0.51854002 -0.48141 -1.5589
0.28968999 -0.65006 -1.2658
-0.52976 -0.48137999 -1.5588
0.27959999 -0.65061003 -1.2642
-0.53523999 -0.48120999 -1.5583
0.26982999 -0.65306002 -1.2625999
-0.54879999 -0.48225001 -1.5559
0.23123001 -0.65129 -1.2625
-0.57775003 -0.48266 -1.5573
0.22254001 -0.65046 -1.2666
-0.58876002 -0.48221999 -1.5558
0.21686999 -0.65105999 -1.2621
-0.59749001 -0.48067999 -1.5566
0.20547999 -0.65061003 -1.2642
-0.60948998 -0.48102999 -1.5577
0.12389 -0.65153998 -1.263
-0.68975002 -0.48137 -1.5588
0.37821001 0.11009 -1.1798
0.10077 -0.65337002 -1.2606
-0.70981002 -0.48218 -1.5556999
0.35815999 0.11001 -1.1789
0.086809002 -0.65004998 -1.2601
-0.72548002 -0.48249 -1.5567
0.32001001 0.11129 -1.1795
-0.75840002 -0.48019999 -1.5549999
0.11969 0.39980999 -1.6773
-0.32218 0.066248 -1.1
-0.15206 -0.37101001 -1.7615
-0.75841999 -0.38802001 -1.2473
0.11847 0.39616001 -1.669
-0.32984 0.061202999 -1.0882
0.65631998 -0.54025 -1.4687001
-0.15773 -0.37035 -1.7584
-0.75801003 -0.38753 -1.2369
-0.052368 0.14911 -1.2453001
-0.84676999 -0.43228999 -1.3796999
-0.91942 -0.46324 -1.4785
0.13683 0.2784 -1.4699
0.88638002 -0.12757 -1.64
-0.33431 -0.64099997 -1.2696
0.91153997 -0.48923999 -1.5567
-0.93816 -0.033147998 -1.3981
0.58876002 -0.34783 -1.5887001
-0.35760999 -0.64247 -1.2695
0.89835 -0.48872 -1.5599
-0.13108 0.38005 -1.4868
-0.36919999 -0.64108998 -1.2697999
0.88981998 -0.48669001 -1.5589
-0.37164 -0.64253002 -1.2696
0.87926 -0.48991999 -1.5589
-0.40871999 -0.64269 -1.2668999
0.84976 -0.48991001 -1.5589
-0.46893001 -0.64337999 -1.2683001
0.78874999 -0.48989001 -1.5588
0.40221 -0.30408999 -1.3375
-0.47815001 -0.64019001 -1.268
0.77477998 -0.48855001 -1.5592999
-0.48794001 -0.64026999 -1.2682
0.76705998 -0.48953 -1.5576
-0.52732003 -0.64025003 -1.2681
0.72694999 -0.48875999 -1.5599999
-0.53943998 -0.64103001 -1.2667
0.71933001 -0.48967999 -1.5581
-0.54777998 -0.64087999 -1.2694
0.70297998 -0.48857999 -1.5594
-0.55962002 -0.64115 -1.2668999
0.69990999 -0.48873001 -1.5599
-0.56990999 -0.64016002 -1.268
0.68927997 -0.48839 -1.5588
-0.57953 -0.64314997 -1.2648
-0.13338999 -0.31841999 -1.8494999
0.67962003 -0.48991999 -1.5589
-0.58987999 -0.64086002 -1.2663
0.66996002 -0.4887 -1.5598
-0.6099 -0.64143002 -1.2644
0.41192999 -0.27454001 -1.3431
0.64677 -0.48989001 -1.5588
-0.17878 -0.31996 -1.8476
-0.61993003 -0.64227003 -1.2631
0.63674003 -0.48833999 -1.5585999
-0.62405998 -0.64029002 -1.2682
0.62761003 -0.48866999 -1.5597
-0.19704001 -0.31832999 -1.849
-0.63937002 -0.64227998 -1.2661
0.61113 -0.48839 -1.5588
-0.64946997 -0.64059001 -1.2658
0.60851997 -0.48875999 -1.5599999
-0.22434001 -0.31999999 -1.8479
-0.66646999 -0.64043999 -1.2685
0.58908999 -0.4885 -1.5591
0.59303999 0.0018248 -1.4025
-0.67885 -0.64061999 -1.2659
0.57920998 -0.48820001 -1.5582
-0.68944001 -0.64162999 -1.2648
0.56716001 -0.48851001 -1.5592
-0.71996999 -0.64085001 -1.2663
0.53933001 -0.48991999 -1.5589
-0.72974998 -0.64219999 -1.2690001
-0.28832 -0.31986001 -1.847
0.52956998 -0.48499 -1.559
0.48952001 -0.59359998 -1.3678
-0.32629001 -0.42477 -1.6599
0.40046 -0.43536001 -1.3995
0.40843999 -0.45231 -1.4392
-0.37494001 -0.31845999 -1.8497
0.43724999 -0.48863 -1.5596
-0.39342999 -0.31829 -1.8487
-0.83849001 -0.64060003 -1.2628
0.41962999 -0.48996001 -1.559
-0.40924999 -0.31850001 -1.85
-0.84991002 -0.64140999 -1.2614
0.40792 -0.48852 -1.5592
-0.85913002 -0.64156002 -1.2617
0.39624 -0.48684999 -1.5594
-0.45638999 -0.31851 -1.85
-0.89902002 -0.64284998 -1.2612
0.35326999 -0.48978001 -1.5584
-0.46245 -0.31830001 -1.8487999
-0.90666997 -0.64020997 -1.2651
0.34459999 -0.48346001 -1.5598
0.037634 -0.48629999 -1.5473
0.76858997 -0.65118998 -1.268
-0.044976 -0.4835 -1.5599999
0.74959999 -0.65381002 -1.2674
-0.063219003 -0.48335999 -1.5595
0.73904002 -0.65082002 -1.2673
-0.078855 -0.48284999 -1.5578001
-0.898 -0.43533999 -1.5639
0.70525998 -0.65145999 -1.2685
-0.10745 -0.48315999 -1.5589
0.69866002 -0.65118998 -1.268
-0.11265 -0.48315001 -1.5588
0.65666002 -0.65417999 -1.2622
-0.15428001 -0.48152 -1.5592999
0.63848001 -0.65161997 -1.2688
-0.17768 -0.48282 -1.5578001
-0.64999002 -0.062111001 -1.1338
0.62781 -0.65019 -1.2661
-0.18553001 -0.48137 -1.5588
-0.65173 -0.060865998 -1.1329
0.61738998 -0.65237999 -1.2676001
-0.19599 -0.48146999 -1.5591
0.57875001 -0.65154999 -1.266
-0.23774 -0.48269001 -1.5573
0.56840998 -0.65017998 -1.2690001
-0.24053 -0.48157999 -1.5595
0.55757999 -0.65161997 -1.2632
-0.25883001 -0.48133001 -1.5587
0.54460001 -0.65025997 -1.2661999
-0.26921999 -0.4826 -1.5571001
0.537 -0.65205997 -1.267
-0.27737001 -0.48159 -1.5595
0.43976 -0.65113997 -1.2679
-0.37573001 -0.48453 -1.5576
0.38497999 -0.65074998 -1.2672
-0.42473 -0.48166999 -1.5598
0.37274 -0.65136999 -1.2683001
-0.43794999 -0.48271999 -1.5574
-0.73456001 -0.27711999 -1.3491
0.30651 -0.65192002 -1.2637
-0.50939 -0.48063001 -1.5563999
0.10544 0.36552 -1.6188999
0.64581001 -0.57002997 -1.4172
-0.16455001 -0.40055999 -1.7063
-0.70946997 -0.45116001 -1.4355
-0.75217998 -0.46574 -1.4819
-0.90640002 -0.47678 -1.5171
-0.13260999 -0.65258998 -1.2562
0.30735999 -0.32947001 -1.837
-0.94805002 -0.48451999 -1.5417
-0.51968002 0.17137 -1.2793
-0.78355002 -0.59061998 -1.3609999
0.46281999 -0.43338001 -1.6587
-0.86925 -0.43720999 -1.3911999
-0.38993999 -0.64529997 -1.266
0.86394 -0.48831999 -1.5585999
-0.37604001 0.10995 -1.1782
-0.20273 -0.3301 -1.8405
-0.80190003 -0.34577999 -1.3234
-0.41837001 -0.64178997 -1.2682
0.83928001 -0.48875001 -1.5599999
-0.44496 -0.64239001 -1.2693
0.80952001 -0.48965001 -1.558
-0.45943999 -0.64244998 -1.2695
0.79860997 -0.48815 -1.558
-0.49805 -0.64196002 -1.2685
0.75725001 -0.4869 -1.5595
-0.50950998 -0.64200002 -1.2656
0.74387002 -0.48868001 -1.5597
-0.46682999 0.10697 -1.17
-0.29001001 -0.33070999 -1.8327
-0.50606 -0.64796001 -1.2591
0.74513 -0.48875999 -1.5493
-0.51936001 -0.64076 -1.2661
0.73719001 -0.48877001 -1.5599999
-0.65632999 -0.64096999 -1.2696
-0.21204001 -0.31964001 -1.8458
0.59513998 -0.48969001 -1.5581
-0.69780999 -0.64064002 -1.2659
0.55471998 -0.48852 -1.5592
-0.70931 -0.64117002 -1.2668999
-0.26089999 -0.31999001 -1.8478
0.54832 -0.48679 -1.5592
0.42116001 0.28935999 -1.4637001
0.15251 -0.48515999 -1.5596
0.92451 -0.39295 -1.5746
-0.36826 -0.31975999 -1.8465
0.44869 -0.48835 -1.5587
-0.38736999 -0.31845999 -1.8497
0.42776999 -0.48805001 -1.5577
-0.42796999 -0.31843001 -1.8496
-0.86409003 -0.64073002 -1.2601
0.38749 -0.48971 -1.5582
-0.87987 -0.64238 -1.2603
0.37616 -0.48986 -1.5587
-0.87830001 -0.64611 -1.2555
0.37024999 -0.48863 -1.5489
-0.44973999 -0.31821999 -1.8484
-0.88800001 -0.64016998 -1.265
0.36485001 -0.48703 -1.5599999
-0.47518 -0.31834999 -1.8491
-0.91826999 -0.64076 -1.2631
0.33335 -0.48513001 -1.5595
-0.92874998 -0.64146 -1.2645
0.32786 -0.48846 -1.559
-0.68124998 -0.36013001 -1.3243001
-0.49443999 -0.31849 -1.8499
-0.93650001 -0.64118999 -1.267
0.31377 -0.48840001 -1.5588
-0.50700003 -0.31658 -1.8494
-0.94705999 -0.64332002 -1.2621
0.30543 -0.48688 -1.5595
-0.51981002 -0.31834999 -1.8491
-0.95039999 -0.64340001 -1.2623
0.29997 -0.48701 -1.5599
-0.52609998 -0.31826001 -1.8486
-0.96768999 -0.64046001 -1.2654999
0.28048 -0.48697999 -1.5598
-0.53917998 -0.31663999 -1.8497
-0.97273999 -0.64162999 -1.2679
0.27478999 -0.48679 -1.5592
-0.54876 -0.31832999 -1.849
-0.98958999 -0.64064002 -1.2689
0.26910001 -0.48659 -1.5585999
0.22633 -0.48896 -1.5499001
-0.78083003 -0.36488 -1.3211
0.21720999 -0.48675999 -1.5591
0.20879 -0.48637 -1.5579
0.1848 -0.48686999 -1.5595
-0.65779001 0.099868 -1.1578
-0.67866999 -0.39556 -1.3085001
0.17518 -0.48898 -1.55
-0.67953002 -0.39493001 -1.3164001
0.17384 -0.48813999 -1.558
-0.68124002 -0.39737001 -1.3194
0.16586 -0.48508999 -1.5594
0.92909998 -0.39495 -1.5696
0.15377 -0.48888999 -1.5497
0.12585001 -0.48681 -1.5592999
0.10967 -0.48631001 -1.5577
0.099266 -0.48350999 -1.5599999
0.083400004 -0.48350999 -1.5599999
0.057039998 -0.48348999 -1.5599
0.046530999 -0.48512 -1.5595
0.033339001 -0.48488 -1.5587
0.44439 -0.35435 -1.3291
0.022932 -0.48514 -1.5595
0.022290001 -0.48897001 -1.55
0.43713 -0.35984999 -1.3286
0.012372 -0.48478001 -1.5584
0.42868999 -0.35936999 -1.3268
0.0097712995 -0.48484001 -1.5585999
-0.0038017 -0.48863 -1.5489
0.41815001 -0.35912001 -1.3259
-0.0032996 -0.48640001 -1.558
0.40447 -0.35866001 -1.3296
0.79442 -0.65087003 -1.2674
-0.018960999 -0.48477 -1.5584
0.40459999 -0.35034999 -1.3195
0.79155999 -0.65728003 -1.2594
-0.019431001 -0.48829001 -1.5477999
0.78654999 -0.65223998 -1.27
-0.029318999 -0.48521999 -1.5598
0.77978998 -0.65223998 -1.2643
-0.031922001 -0.48526001 -1.5599
0.75683999 -0.65204 -1.2697001
-0.058015998 -0.48493001 -1.5589
0.75799 -0.65783 -1.2577
-0.058224998 -0.48875001 -1.5493
0.72961003 -0.65197998 -1.2668999
-0.089239001 -0.48346001 -1.5598
0.71741998 -0.65228999 -1.2675
-0.099647999 -0.48346999 -1.5599
-0.9188 -0.43564999 -1.5650001
0.68379998 -0.65039003 -1.2694
-0.12307 -0.48502001 -1.5591
0.88253999 -0.11424 -1.6351
0.67948002 -0.65065998 -1.267
-0.13868 -0.48168001 -1.5598
0.87993002 -0.11436 -1.6368001
0.6652 -0.65017003 -1.2690001
-0.14907999 -0.48320001 -1.559
0.64943999 -0.65083998 -1.2673
-0.16728 -0.48298001 -1.5583
-0.66680002 -0.066446997 -1.131
0.60777003 -0.65167999 -1.2663
-0.20914 -0.48341 -1.5597
-0.68049002 -0.068907 -1.1344
0.5891 -0.65673 -1.261
-0.22214 -0.48148 -1.5592
0.51248002 -0.65011001 -1.2689
-0.29843 -0.48139 -1.5589
-0.88177001 -0.55844003 -1.2868
0.4095 -0.65044999 -1.2639
-0.40808001 -0.48444 -1.5573
-0.68110001 -0.41955999 -1.33
0.66443002 -0.54977 -1.4497
-0.14561 -0.37863001 -1.7376
-0.74807 -0.38341999 -1.22
-0.75054997 -0.38464999 -1.2193
-0.93961 -0.47488999 -1.511
-0.93347001 -0.46992999 -1.4895999
-0.15488 -0.65041 -1.2575001
0.28582999 -0.32997 -1.8398
-0.96899998 -0.48029 -1.5496
-0.010052 0.21981999 -1.3685
-0.76945001 -0.62336999 -1.1865
0.48785001 -0.46697 -1.4751
-0.59644997 -0.33048001 -1.8314
0.44542 -0.48787001 -1.5411
0.20020001 -0.49028999 -1.5542001
0.10041 -0.48953 -1.5463001
0.092915997 -0.48886999 -1.5497
0.061182 -0.48974001 -1.5470001
-0.79841 -0.39916 -1.302
0.053528 -0.48872 -1.5492001
-0.80304003 -0.39221999 -1.3073
0.042987999 -0.48842001 -1.5483
0.2987 0.27827999 -1.4693
0.022451 -0.49114001 -1.5513999
0.18982001 -0.64731997 -1.2699
-0.62998998 -0.47793001 -1.5589
0.43792 -0.36168 -1.33
0.28841999 0.27825999 -1.4691
0.019858001 -0.4912 -1.5516
0.01186 -0.48890999 -1.5498
0.42983001 -0.35041001 -1.3197
0.0091281002 -0.48993 -1.5476
0.26793 0.27814999 -1.4686
-0.0060224999 -0.49204999 -1.5543
0.25771001 0.27807999 -1.4682
-0.011448 -0.49094 -1.5508
0.78762001 -0.65684998 -1.2586
-0.021915 -0.48894 -1.5499001
0.77753001 -0.65785998 -1.2577
-0.037489999 -0.48885 -1.5496
0.7658 -0.65758997 -1.26
-0.047843002 -0.48896 -1.55
0.74798 -0.65407002 -1.2589999
-0.0634 -0.48879001 -1.5494
0.73576999 -0.65574998 -1.2591
-0.076367997 -0.48826 -1.5477
0.72966999 -0.65592998 -1.2594
-0.081515998 -0.48888001 -1.5497
0.71973997 -0.65557998 -1.2588
-0.099633999 -0.48890001 -1.5498
-0.89419001 -0.43188 -1.5576
0.70814002 -0.65731001 -1.2595
-0.1074 -0.48888999 -1.5497
0.69773 -0.65415001 -1.2592
-0.11515 -0.4869 -1.5492001
-0.91104001 -0.435 -1.5506999
0.89037001 -0.11713 -1.6296999
0.68893999 -0.65684003 -1.2586
-0.12291 -0.48853999 -1.5486
0.88665998 -0.11868 -1.6296999
0.67637998 -0.65424001 -1.2593
-0.13586999 -0.48875001 -1.5493
0.12216 0.27829 -1.4693
0.87730998 -0.1209 -1.638
-0.14369 -0.49085 -1.5505
0.87870997 -0.11863 -1.6289001
0.66487998 -0.65603 -1.2596
-0.14612 -0.48932001 -1.5456001
0.65837997 -0.65437001 -1.2596
-0.15397 -0.4869 -1.5493
0.64368999 -0.65460002 -1.26
-0.16695 -0.48870999 -1.5492001
0.63946003 -0.65489 -1.2574
-0.17987999 -0.48683 -1.5491
-0.64880002 -0.061771002 -1.1276
0.62584001 -0.65452999 -1.2599
-0.18253 -0.48708999 -1.5499001
-0.65025997 -0.068628997 -1.1299
0.61941999 -0.65289003 -1.2596999
-0.19812 -0.48877001 -1.5494
-0.66895998 -0.064911999 -1.1229
0.60584003 -0.65622002 -1.26
-0.20846 -0.48686999 -1.5492001
-0.68191999 -0.067431003 -1.1289999
0.58546001 -0.65605998 -1.2596999
-0.22932 -0.48695999 -1.5495
0.57419002 -0.65619999 -1.26
-0.23976 -0.48561001 -1.5499001
0.56963998 -0.65469998 -1.2571
-0.24742 -0.48811999 -1.5473
0.53969002 -0.65553999 -1.2587
-0.27886999 -0.48827001 -1.5477999
0.48741999 -0.65281999 -1.2595
-0.32879999 -0.48798999 -1.5469
0.33766001 -0.65890002 -1.2485
-0.47224 -0.48712999 -1.5387
0.76359999 -0.090617001 -1.3774
0.26873001 -0.65236998 -1.2587
-0.54992998 -0.48672 -1.5487
0.098086998 -0.65217 -1.2582999
-0.71978003 -0.48383 -1.5497
0.04386 -0.65158999 -1.2598
-0.76235002 -0.48350999 -1.5487
0.039298002 -0.65000999 -1.26
-0.77859002 -0.48392999 -1.55
-0.67940998 -0.41981 -1.3261
-0.0031826 0.095788002 -1.1497
-0.79036999 -0.48355001 -1.2792
0.16134 -0.34141001 -1.8189
-0.048555002 -0.65947002 -1.2395999
-0.85477 -0.48065001 -1.5236
-0.056928001 -0.65165001 -1.2599
0.38485 -0.32800999 -1.839
-0.86936003 -0.48874 -1.5438
0.12698001 0.39635 -1.6698
-0.31779 0.060175002 -1.0891
0.66021001 -0.54365999 -1.4689
-0.14621 -0.37235001 -1.7594
-0.74953002 -0.38953999 -1.2305
-0.86870003 -0.4479 -1.4148
-0.14816999 -0.65235001 -1.2557
0.29530999 -0.32995999 -1.8397
-0.95822001 -0.48328999 -1.548
0.27614999 -0.32802999 -1.8392
-0.16599 -0.65122998 -1.2565
-0.97930002 -0.48631999 -1.5474
-0.73953998 -0.64213002 -1.2598
0.51744002 -0.48980999 -1.5424
0.40259999 -0.43845999 -1.3899
0.21822 -0.50051999 -1.533
-0.59917003 -0.33015999 -1.8296
0.44299999 -0.48727 -1.5344
-0.67967999 -0.069727004 -1.1291
0.59946001 -0.65678 -1.2585
-0.21889 -0.48693001 -1.5494
0.55667001 -0.65442002 -1.2596999
-0.25806999 -0.48868999 -1.5491
0.54772002 -0.65628999 -1.2575001
-0.26583001 -0.48675001 -1.5488
-0.74322999 -0.062738001 -1.124
0.52588999 -0.65429997 -1.2595
-0.28687999 -0.48552999 -1.5497
-0.02665 0.27344999 -1.4598
